# .PCD v.7 - Point Cloud Data file format
VERSION .7
FIELDS x y z rgb
SIZE 4 4 4 4
TYPE F F F F
COUNT 1 1 1 1
WIDTH 723
HEIGHT 1
VIEWPOINT 0 0 0 1 0 0 0
POINTS 723
DATA ascii
20.94178575690602 0.3914843791173032 -0.354837760886766 166981920
21.50047394898475 0.539605378925649 -0.4149792901576491 182751984
22.0747215751273 1.222157905887268 -0.3496150708992084 191242944
21.97688651449043 0.3752955386004793 -0.4608146682131592 172343824
21.59356787148207 1.967261894036055 -0.3601281967987968 197599920
21.71486999714814 1.68648139844219 -0.331506753801903 203887072
21.48443412718593 0.7641693031437022 -0.3818312158524156 179601840
21.41620174455282 2.326600013169223 -0.4029776540986744 173310240
21.82054213662156 0.9623059375655463 -0.3765893299309529 153186400
20.46684570859151 2.293193550133033 -0.4751300482208882 143708256
21.65296190239928 1.13615231518327 -0.3367089460613657 155304144
21.97258825859161 0.5077615642594369 -0.4425390494402079 172286304
21.79332051374944 -0.3022705586645118 -0.538968475681908 146886784
22.30049109237687 0.800922351465246 -0.4182112665144602 153223376
21.0526774492532 2.202942719784253 -0.4168117379811989 154271904
21.72473139778339 1.075796400318861 -0.353210484756934 174297296
21.74042958014081 0.3811492961938404 -0.4473314908762712 150085760
20.63837772654259 0.130031614485757 -0.331401948197093 154280000
21.77477526569314 -0.4763479347542495 -0.5655886288584542 150081632
21.55506538194009 1.435416261349865 -0.3190330408984112 156446928
21.32650226036402 1.818863557711105 -0.3584435628104624 197591952
21.6430048968625 1.711124391450965 -0.3340944054490592 184865232
22.2517604316935 0.3764578378631628 -0.4708129866909082 188101264
22.17370718667834 0.4513311388605474 -0.4577915906364518 161685792
21.52124264962706 0.2157849407545309 -0.4543559796631023 188072624
22.0578503662325 0.6602891792232264 -0.4254998251281042 144781408
21.81811137595109 0.6226907256879781 -0.4174174936597833 144785488
21.74438931774911 0.5212584654528479 -0.4246046039883997 194376512
21.02693788417915 0.3479959949389001 -0.3758165883460647 161677552
20.89801842646284 2.407124151113073 -0.4493886421959901 141619264
21.99803654556636 1.198479671418004 -0.3491151397066092 182817232
22.59755033498218 0.5701344335901782 -0.4646510498251794 161685680
21.72706478982287 0.9665997383030747 -0.3701754769789321 172220752
22.09448486198027 0.3805535038629586 -0.4633934161871714 182813280
21.79394101351789 0.7089905260672172 -0.4058635420421567 187998832
20.49960250632683 0.8834955380315743 -0.315121148601865 192336368
20.56827897328915 0.9654832109933048 -0.3209366505733173 186999504
21.98193230891295 0.7705618694969444 -0.4061981543342181 171229696
21.41762955274599 0.9392518831137483 -0.353046433502598 160637088
20.74656337210135 0.6190364250028044 -0.2869791971987657 177443056
20.94457570929691 0.5016748480237753 -0.3427838922365829 154280032
22.04784034269778 0.4659432289173843 -0.4504841188310544 162754848
18.80050734207519 -1.99131631509533 -0.222703302689497 202789520
22.17780984975188 0.5494246343626923 -0.4450576770108344 191246864
22.3951095502638 0.5973241594818665 -0.448950748236529 172298608
21.84776405159794 0.8242415533320728 -0.3886060444551212 147968096
21.59752256720704 1.283281010902834 -0.3242949599978752 187036176
22.17933352702877 1.092574922758987 -0.3741670585902356 156446928
22.29309775866149 0.4575846891004052 -0.4630595407627914 190140992
21.76999031203718 0.3045510691721153 -0.4577282501706644 159559824
21.35532366424014 -0.6065415994352001 -0.554269645049753 187093760
22.44299206279806 0.331939697184129 -0.4871875042916188 162754896
22.55246115370547 0.135062217424612 -0.518956384319627 146878560
21.44106079963028 1.183930736574607 -0.3243607220353771 179696032
21.90470985683367 0.3249179777861431 -0.4639898829816518 165949840
22.60545477469915 0.3777754894121369 -0.4897748993851963 153239680
21.40101097028611 2.450965772060038 -0.4182296763553808 157421696
21.79116743113205 0.1385586054871012 -0.4786669519759475 146878592
21.17768973381105 1.894848006693611 -0.3767068621278741 202756784
21.33949694177334 0.7577051023536333 -0.3748227972523318 145825872
17.56284688079677 0.657208575811423 -0.4432419795085096 193237472
22.00390407624072 1.096287547624285 -0.3637686886477998 161644720
21.43174498278076 1.36629383439362 -0.3152761620917635 147996816
19.41482062017116 0.8945640266532781 -0.408873894587547 177574400
21.79818371060307 -0.3947025240653139 -0.5498484689855161 146894992
21.07146536994306 2.583643217637107 -0.4522506828940922 145838160
17.86252913593925 0.8891856204804078 -0.4635487124677373 199578048
22.280613300184 0.07421906179798098 -0.51488635145758 172314976
21.09439674409377 0.6363424117145039 -0.3532650914473044 201786272
21.60756110397221 0.6855660788960538 -0.3989062230359601 156364944
18.72778863819761 1.392001347059548 -0.5162772726461079 195441216
22.26991398019165 -0.2369316203248467 -0.5440086197566836 171254128
21.97594244999337 0.6674883173560517 -0.4200945289324493 165839200
21.34308907060658 2.503336200606044 -0.4239415970617693 155332800
19.237130156719 0.7830858963582936 -0.4088108727814916 178557440
21.1359021112383 2.14629608643753 -0.4044957940320783 179712608
21.34107118177712 1.938905850839735 -0.3688904449997248 154312944
22.06591622092276 0.07449563206552519 -0.5034553357979364 171250016
20.18935383129683 0.6185910947210261 -0.3042587085293067 186937680
21.47488929754404 -0.4138415415741611 -0.5375025361096465 161734960
21.84711858335267 1.60820312367006 -0.3362536604287426 149033040
21.48667068043252 2.229232985858974 -0.3928007837293464 185918000
21.41442832529322 0.5308092187613827 -0.4092452835225411 168075472
19.66923399473941 -1.555753145904545 -0.2541272486503628 159563952
21.40277217497824 0.8067384577457875 -0.3728839522445797 158482592
21.24585317165267 2.257533393331312 -0.4062488028071789 174412160
22.82697984032418 0.2151767617678761 -0.5103393406845522 192324496
21.43900566377449 -0.7809123587652587 -0.5784981730078564 170156496
22.05768893317314 0.2696591435720282 -0.4754377246465584 160596192
21.6957229087834 0.7811684629414241 -0.3900255482844157 177496560
19.46999386956482 0.3646574171641675 -0.3252226261429118 174371184
20.99230047519273 2.032431321768229 -0.4046817172492967 158494848
21.52358751313733 0.888563252938565 -0.3691320607666058 180703728
21.77211928208463 1.237104933068773 -0.3338545026323719 162697424
20.35019600036498 2.241565375186885 -0.4806168174144409 183869920
20.76928430640728 0.1719954298001721 -0.3485181764275761 147906672
19.55235401310958 1.83580666631596 -0.5079968297801886 196551232
20.89466269110145 0.58193006334041 -0.319449317423241 167030992
22.39317520599349 0.722173757113645 -0.4339515950407031 159592704
21.51274370803975 1.602330006770629 -0.3290141829850536 173294016
19.25987070596399 -1.61779801979347 -0.192272726069922 166928560
19.75751364257667 1.890645633649912 -0.495232527309366 199582288
19.09125169223699 1.340358774945077 -0.4979277496883971 203850320
22.22578311178716 0.9712895005036815 -0.3900521026404489 170148256
21.46675351930696 1.027631348604374 -0.3466702027155224 148000848
19.85350033479012 -0.6827188028218022 -0.2832675286584276 177537456
21.22374693573931 1.528454784789317 -0.3356366696753466 148000880
21.26335253807625 0.7067730802157264 -0.3778598755299289 168055136
21.48279345594814 0.636998636660003 -0.3970743807779674 149020816
21.86625097530716 1.463821353968593 -0.3355812140325418 160645312
21.28100956912941 0.8842529841236578 -0.3547928372753287 205853200
20.82838844837626 2.443907092964082 -0.4594436279323798 165863632
20.64103506860392 0.811787654306418 -0.2925748065497409 163791024
22.76763167684074 0.0127780763578807 -0.5154489390710641 142688336
17.6777761208799 0.2710799939802674 -0.4481007535909082 156414160
22.12595422655578 3.04496227019787e-05 -0.5153959240463279 185844160
19.70103288493804 -1.439632518893344 -0.3009831330000943 184852944
17.60553904446778 0.5902530361425514 -0.4455301616831912 146894928
20.48269727048489 2.121554655260415 -0.4566620563285498 183923200
18.24991484869808 -0.407339131022608 -0.314757473564598 173273312
21.76456148344711 1.37979004913942 -0.33200472461251 167014544
19.94732004468697 -0.9538957483722259 -0.3409783999886894 182780336
21.92258786538397 0.5919769929098018 -0.4251551642191105 175448512
20.2775205076588 -1.38991717228966 -0.41107745741064 171147536
21.41014258573671 0.6998047878570802 -0.3865646578490661 166944960
19.94452621615459 1.224289676171159 -0.4143914921411328 163770528
20.99265599527314 1.201476333977636 -0.3205554214376417 181739920
18.24000411234825 1.138034601062258 -0.4842424010665966 158466288
21.65908398388129 2.119340762363088 -0.3727940297559342 155304144
21.49759442988699 2.718216181219941 -0.4385223365450136 175379136
21.66069399838654 2.024778349399623 -0.3647919965141572 209146640
18.34629928542472 -0.669626244358291 -0.2652438327965485 168046944
19.2222461017638 1.680140959662324 -0.520285930891817 217576016
17.38554033515164 0.6612664814118488 -0.4359324302568977 187015552
20.17286816572015 2.20476400646481 -0.4910132150692852 201753600
21.66030771135899 2.405144115968565 -0.400917814161193 177459632
21.51792998185864 2.472198031840754 -0.4131417625250678 195482656
22.27535993816881 1.218803021754425 -0.3616603589486981 188064416
21.44400575466392 2.634055162533686 -0.4325860191379194 171205088
21.72493162635748 2.185639086005212 -0.3771076450242309 175366400
22.56073943016447 0.7059515086840911 -0.4430683883609797 190108320
21.74137526866566 2.083930385717794 -0.3670348532723928 153264320
22.41942130284333 1.004724239763513 -0.3963770311787307 149016704
17.72541551225641 0.8506966437636386 -0.4529370633234998 189166016
22.33494017974598 1.030483581222776 -0.391148781408422 161661136
20.06506572706187 1.512328189465534 -0.4326400716132855 182886864
18.56893803112222 -0.9084516871173165 -0.2102330609676796 144785488
21.67491824273947 2.308225569588296 -0.3918898016687163 176451872
21.70835439011159 0.5938177242517526 -0.4176509680737873 161653008
22.46814796565593 0.9031277724786192 -0.4119764746561543 164802784
20.63618491389418 1.018761099378061 -0.3261480163825172 160628912
21.8447387225699 1.233599748474961 -0.3370283770441087 186966480
18.32071106282453 1.170614802553664 -0.48983983637267 153252000
22.50991891246917 0.8334961575616397 -0.4252822903966176 176443808
18.04639370544036 1.032680257431948 -0.4735019325101972 148009024
21.36432113296466 2.813383156850183 -0.4552954705559255 193397632
21.53375539029754 2.389846453113356 -0.4057381368796804 149008496
20.1490264337782 -0.8190304616823729 -0.3591579179090948 161693920
17.32049951875887 0.5818416966954253 -0.4292032781778938 181649776
21.43271743018154 2.550671299131101 -0.4260956941934633 175489504
21.80985750710985 0.4442039530732242 -0.4397932002273071 192205520
22.14846975771536 1.39625434403626 -0.3511888265926134 184889792
22.1446718787205 1.267127852450167 -0.3507617556427113 196506240
21.73039712413262 0.8869169614472767 -0.3769286423111308 166969584
22.6948761496468 0.6468184604204843 -0.4600096396998273 152186992
19.59545229124456 -1.3080013027694 -0.2967121609889828 174424560
23.05882031279766 0.3569861086253972 -0.4865974154557559 196567472
21.81992837797015 2.123852363445299 -0.3665249063663745 218469216
22.53053356570609 1.13180805095969 -0.3852519581472515 226890736
20.86483489835737 2.606546537826526 -0.4718116255751349 211284880
18.75868568119368 1.472147094157689 -0.5181731310372005 159592592
22.17682827185863 1.479892308939467 -0.3527761376511953 161718416
22.08237960361083 1.575011621149697 -0.3470662438244229 198607488
18.85036334615566 1.573168868224046 -0.5232416986906081 208102160
22.08623203627416 1.682491195775375 -0.3488567556014279 199660224
22.85481398399724 0.5390149672172481 -0.4813411800336617 173269680
20.48376487304883 1.238018640858849 -0.3704699639960722 195396176
21.81366306026452 2.29758761960084 -0.3837566801597563 148971584
20.14470112481182 1.4513238544962 -0.4208846152161813 207049248
20.27741715401545 1.130212407144397 -0.3695653918517692 196506304
22.36334353942626 1.199130843263592 -0.3710437531272819 184975872
21.69922782765823 2.691192417399258 -0.4279997607101947 197513984
21.88400977594434 2.240217531044514 -0.3755414159586566 168988944
22.67860054311053 0.8727837722009467 -0.4261423274028456 152174736
19.93985223286725 1.436135291016865 -0.4367474750074085 149004432
22.25165843724727 1.549521701529593 -0.3557395255410718 188109376
22.53686514062461 0.9606039592944375 -0.408944327683028 152133728
18.65329313712798 0.07313221542130757 -0.347507853156529 164921712
19.38417539066701 1.817309996926087 -0.5208916596286431 156414096
21.55280197594839 1.364425820684308 -0.3183415278145562 183816752
18.54565028776566 1.384599424353818 -0.502113541386332 212251248
22.18316176345771 1.666232417378803 -0.3531302787603534 157511856
22.98693030005701 0.4437655732553909 -0.497321170759565 188142368
20.97643826183663 1.31946194507889 -0.3373324593218484 175481344
22.9055470912 0.6350455408735107 -0.4712900457255 146931824
18.42931898177601 1.231212304372121 -0.4957478100460702 197534288
19.60576257173932 1.938470610267956 -0.5142556125051033 145870928
21.77294988873928 2.017913500973458 -0.3588083807381874 169038112
21.84406007592144 2.020721957084887 -0.3561117938656292 183796112
21.61027776420559 2.565702578667963 -0.4202297695360029 160592128
22.17930064864335 1.586803384511229 -0.3530112245744793 154345632
20.45641550512465 1.318008479194421 -0.3792482844023202 152195248
20.73225688423534 2.532230948688851 -0.4766188589256504 176394432
21.72557652110109 2.369771810807319 -0.3960116558682469 149004400
19.43707495340703 0.4680537079839842 -0.3439628779319432 172220752
18.52990356745536 0.9015613757809456 -0.4885978729311993 178520496
22.06122607210762 -0.2313413995183285 -0.5395744440334821 162799920
21.84117327709942 1.342605091755783 -0.3345035818684118 201744992
21.83049635503533 2.404550126177096 -0.3945640596916725 160616640
22.53791518754235 0.442464731936915 -0.4785849268265276 190096064
19.4497382176154 1.112158451498515 -0.4377347949253019 189190496
20.26016704392406 1.244799729314836 -0.3891863407972652 159531120
22.86093235910635 0.3659503604697747 -0.5041357309894183 145870928
20.43689606153806 2.391180919403583 -0.4873915422784341 188064288
21.96615334074753 1.874510744275727 -0.3442580726349054 201712160
19.74619535014166 0.5707558876567118 -0.332998390467 184926688
21.9632577258147 1.382490486665409 -0.3411000521616617 196452848
19.08376556262508 1.650945323855194 -0.5234553420556988 156422304
19.43016493807843 -1.485592117194026 -0.249520892628517 142684240
19.29803753816858 1.706146491208362 -0.5157246688090613 180650352
18.29565787759188 0.07036188152131576 -0.3821781890503566 170086768
21.77652551090912 2.488522186025266 -0.4054925867234468 188035648
23.19115179111254 0.4696863523507632 -0.4867801686562251 149000352
21.87835035057646 2.523004546634509 -0.4043167186932113 191226640
20.07437162470645 2.26853034238763 -0.5056202557433995 216564944
21.15962894233093 2.790129587504616 -0.4662743976715032 145834112
19.12298187618707 -0.7793206772838217 -0.179707447490942 146878576
17.63079317926379 0.8967495227254703 -0.4491421406838969 187048544
18.24199619102198 1.23690020962472 -0.4851385497172916 209138448
22.1758897464297 1.777247292998608 -0.3542917995554511 162775200
20.20204202618183 2.28178288218624 -0.4971458733782306 189088496
18.75606743062313 0.4636418599872305 -0.3995220997665969 182817264
19.04979893851348 0.9116931338237619 -0.4430128761878764 166912192
21.78674673946858 2.942220432999332 -0.448714753388446 154300656
21.88389599254799 2.345605421172926 -0.3855132846110405 164798640
19.90838511411068 2.168714643257279 -0.5104290578077744 198603216
21.82254765772695 2.620304440200088 -0.4142672610003555 173277696
22.26800688730112 1.680786117578376 -0.3575754405949325 198603440
22.69419608737681 1.136549957278764 -0.3947277687523835 154255568
18.57893225875709 0.3910419824936312 -0.4041392704438711 198669360
22.08084342510345 2.039463974221226 -0.3511681085348015 187011744
22.63049498534743 1.070327694609978 -0.3983285682411525 163762368
22.06271102205937 2.252961701638871 -0.3708395249086038 156397712
22.86986072035169 0.7608240827411616 -0.4527399424344409 181739952
21.74145259633437 2.870788214949942 -0.443809844754542 147988624
21.99792436396759 2.057716743188554 -0.3533268986091569 184947184
21.28183419124379 2.835494602038284 -0.4602788589890728 165966064
22.6819850707565 0.9515351522962994 -0.4210597109619095 173289744
19.14205620236699 0.2334842947742432 -0.335173622415856 158535936
20.15023869856631 -1.282573789349718 -0.4118902037951655 140558400
17.82038051838042 0.9998056950450528 -0.4607453709836366 173367664
21.76139283192667 2.742028324260422 -0.4309907271740137 168046928
18.64104229027819 -0.06440766290719603 -0.3308531489362522 157483200
21.5179552156186 2.962554557390425 -0.4618991302027366 174387488
22.83215817150912 0.8905080777708185 -0.4344027320068645 175456736
22.51329965758365 1.235431204092683 -0.3722661354564529 181694848
21.88752025751189 2.105855274316941 -0.3639989152663164 191168992
20.03345019958195 -0.7084290977231382 -0.3233477423243916 152150128
23.00653909030203 0.7521258245372652 -0.4599659010059065 150052976
22.00719237095438 2.164305642709359 -0.3643442902748679 165871824
19.93061824894907 -0.3812835606560497 -0.2584171752084427 172241456
21.73848944171557 1.170863950297039 -0.3378753618208495 151138448
22.14732162209456 1.98540557950988 -0.3528725821655274 190173696
21.47635276140285 -0.5220421822545395 -0.5430258819591197 143757376
18.06674725844328 1.112390280765223 -0.4752020930909368 188146000
21.73382162823872 1.862249340517082 -0.3457212129972583 157466784
21.48175661382448 1.49524440217445 -0.3199981735511919 156426464
19.27625254605818 -1.392879284071787 -0.2233017807646209 215470912
19.98816479437577 -1.16211598932489 -0.3735991871231889 173322672
18.66498109473112 1.572281414275472 -0.5166102231740859 215487408
18.85244581102267 1.681097553901342 -0.5280117374898033 196522560
20.17335924559905 -1.18798228780089 -0.3960760994557269 201708480
21.79905536317773 3.111902667032296 -0.4637841284248299 153223360
19.97943580481511 2.263887741139409 -0.5125652795088957 179577248
18.02042010484989 1.186207667752831 -0.472555565096665 186040800
21.97766454076408 2.752170368191473 -0.4248381188406534 174399904
22.6953624014034 1.234416173004907 -0.3831553921002117 203866848
18.75654815310563 1.586943645664311 -0.5224004500871354 156463280
22.28014783510747 2.039897724212811 -0.3632319285696899 187015824
18.17455901443215 1.290978120390229 -0.48187875358928 199717552
21.97988354953707 2.875124208579409 -0.4354443895342418 179749488
19.06835540963293 1.794070301594278 -0.5261967694012936 162762944
21.96122832579207 2.659258081835187 -0.4157608843420995 165957968
22.19059741587648 2.27259056919634 -0.3670870422199249 189067888
22.04938216838334 2.430372643221033 -0.3902691904769999 195387968
22.3260280193097 1.608166591089084 -0.362964402600886 173289920
22.93138168017656 0.9257212266931821 -0.4304076318547426 172249392
22.76153648296456 1.286294265053276 -0.3813448222367606 193368656
19.87730397706778 0.9722920583059176 -0.3816371234983212 183870080
22.05973312153748 2.599894305981256 -0.4064825838904056 146899072
22.14163703908553 2.137901121487201 -0.3561068315130477 183824720
17.84694134975932 1.09303010082832 -0.4618252340207654 163762352
22.22020390964434 2.202504851192571 -0.3598823225110253 193352304
19.15919518900742 -1.081626755138841 -0.1819549270317848 155332720
20.89856953257579 2.708068101594675 -0.4806607233405107 148987984
18.34023427755543 1.37806363992786 -0.4903083627378483 165970080
19.86880999434199 -0.8294331205049639 -0.301509244213422 153235584
17.64819113437366 0.9782794114702246 -0.4504274751077805 182887008
21.99465601884074 2.482240070244839 -0.3974997774074042 178684544
20.78229635005935 2.60970539056107 -0.481057564398097 180679120
22.50783816802542 1.340655573929638 -0.3683123632452025 194339344
21.85906067310799 1.805415142148457 -0.3367353886204417 176505168
20.84640251673703 0.3198516452109128 -0.3508183249285977 187024032
19.75012566064349 0.2065097325258501 -0.2776408949761158 142684240
19.65108330548986 -0.6253649259221513 -0.2313361717721666 172290336
21.80347304616816 0.231170364320724 -0.465729047998517 141607008
19.52866511718215 -1.418162277367876 -0.2417684321551515 147984464
20.38662591909077 0.3136520034341624 -0.2554846442916911 181703024
20.57522976700419 0.6678030897120728 -0.2759737291505357 145838144
19.93441516091982 2.036188405799086 -0.4957641706070149 153227392
21.90083709438866 2.916889230891852 -0.4418063918002244 143753328
21.02217356624367 2.665441230708905 -0.466126504135407 145825872
21.81346517830191 2.815059388355074 -0.4350290419294192 185873008
22.50604218166833 1.650419204652952 -0.3714873598289485 151134320
19.16183254348223 0.05867791223368307 -0.3063165642896165 149061760
20.84744299890075 2.142233119117246 -0.428100001317924 145838192
22.03978296695417 2.678920487250735 -0.4141096938688822 160645424
19.63329544302333 -1.372579334218475 -0.2861503264333844 158527680
21.17126844338615 1.210327019464904 -0.3068632131734115 155357328
19.16411308931727 -0.2135898237743639 -0.2641115237043637 149057664
22.42869277509429 1.2406081738362 -0.3655994725666931 181690800
22.1783629361814 2.608432429729256 -0.40071004415894 192324400
22.64293850646589 1.680773722143798 -0.3758773064052457 204935648
22.63826740400712 1.572861373043571 -0.3743434726056469 211251760
22.17851547114735 2.80246842038077 -0.4186222216291128 165921120
18.37198098477826 0.7067666635993651 -0.4692438371507718 194343680
22.1598423956608 2.509988458586891 -0.3926530437039379 149004384
22.25730976002703 2.459218219337282 -0.3817482165190881 164806928
20.1173929030519 2.350548616276128 -0.509678308640377 184971824
21.98275558558645 2.585844131026144 -0.4081186238803803 148983936
20.20459238294768 -1.121238377042165 -0.4017883984262983 180662928
19.49558550772047 2.072049578155905 -0.5288367398283381 181817808
22.04952952493078 2.794593554567558 -0.4245588527528522 157475072
22.33191447892755 2.227121344481927 -0.3615142376735456 159543472
19.34166081069903 1.967155343295001 -0.5272924080537067 201827040
22.80093635911545 1.433906490566098 -0.382980022982576 153260208
22.48943861414079 1.795217998174174 -0.3695012224729298 158544032
18.44087908806367 1.449416133743972 -0.4929954673619772 184951216
23.22144556219001 0.8483900465261069 -0.4564231169834335 147959920
21.80218470703736 3.021850385584071 -0.4532264047657008 146890880
23.27204914316905 0.6716061260713975 -0.470738596206024 143732800
18.3899174068355 0.5460270900134777 -0.4470935613209317 150065328
21.04989450537986 2.843136363174617 -0.4770066055284156 157532448
22.35955458406816 2.054128043138423 -0.3623089372528289 181785024
20.9420898404004 2.792679919045076 -0.4842165594862146 152248480
22.09916777815283 2.865910478241132 -0.4278720491374858 210138016
22.91508445934041 1.176533568411117 -0.4003431710979514 170189136
22.16885982604105 2.715390262827346 -0.4120521904700475 180675056
18.90207511147511 -0.1559806595930391 -0.2958430950433873 146915392
19.66622595382088 2.160394101761561 -0.5273211143819356 159547552
23.10431685430852 0.9985523624319597 -0.4287911960536278 169132368
20.84865132791209 -0.4747067041525994 -0.4489069833725327 181711216
21.07008799361043 0.9794845632284038 -0.3057994921389962 178659888
19.31683302474214 -0.9333510770094845 -0.2021851149555467 144814176
23.06575340340392 0.4154608368709052 -0.4929172490317487 163852528
22.71302588673059 1.549235117973663 -0.3798487038454894 173277472
22.71585699342941 1.706543035192152 -0.3793546964625124 179589504
20.15752359205894 -0.5947025364396098 -0.3317234172702963 181695024
21.14468008068689 1.460267121086511 -0.3371814898987054 189129168
22.36218729374 1.394423867054046 -0.360665540840076 167018720
20.40315219145115 0.3997336513916273 -0.2549476289027039 185991536
22.49051907109378 1.464679997143358 -0.368507230656923 153264256
18.15487896505866 1.063453643343385 -0.4763697094234516 151117952
22.78588961579777 0.6844672742263256 -0.4557161750692758 180617552
20.23356829252008 2.415947247822924 -0.5053101263623674 193294768
21.93822625557909 2.295064804775633 -0.3814143435025265 191144384
21.27664036277566 2.899030944742069 -0.4664318012698719 198672864
21.16135032503511 2.786900815920914 -0.4653154641789226 142671968
21.876074863293 2.523633743403118 -0.4030047468762092 182796960
22.47385517616718 0.7333981646032439 -0.4388297497524944 185938608
20.07737681437633 0.9899000055104518 -0.3674694358523088 228156864
21.82294646545405 2.121176909432966 -0.3657245805816538 250049856
22.531763236361 1.130858865744995 -0.3854580444781506 221623184
22.17728524036228 1.777387276635038 -0.3528949311001479 158556288
22.52983900018202 2.122337119563265 -0.3704189554427692 232150064
21.49791612223457 2.718224725669979 -0.4393347072872123 180650784
22.08299050128707 1.572965265259761 -0.3457213288423989 203879136
21.1582493533776 -0.6297514633692964 -0.5293140544154009 144781424
20.46757012373146 2.607461786878428 -0.5057404413485997 193372816
22.17514697824292 1.475874318674892 -0.3518697107499818 158535808
19.13613718903502 0.1418204205962021 -0.3211795164394003 149000320
20.83572271216901 -0.643544999136846 -0.4679411732541173 181785168
21.66079253630438 2.019476208322066 -0.3623701980691015 203862736
21.83918596502327 2.421948640411801 -0.394683487884717 188047968
22.25236833621015 1.02772946505472 -0.3867276977370946 155299984
18.84110095012746 0.3814986458118476 -0.3797514838853546 194450144
19.21382948591638 1.07238194315035 -0.4533670091228537 167977184
18.63325652860231 0.4951725526578376 -0.4157030840071262 181793296
22.1019021840299 2.227146382788769 -0.3640994113621365 154247296
21.66177609266634 2.121477813941171 -0.3723620698184422 156364992
18.24843784213115 0.8541450405221648 -0.4859432726405981 182800896
21.97886053740273 0.3793635738213053 -0.4604221885653834 182907568
22.69202920312514 2.021353575927761 -0.3796743181998924 207024896
23.306164817181 0.8838006922628221 -0.4547481520429379 176497040
18.66290058432689 1.677017069801469 -0.5154854915778565 187019744
21.81699402546897 2.611773218400452 -0.4133034963485711 192295648
22.08597353995442 1.685826751780262 -0.3487149174877209 205992736
22.27831675660849 2.0345794799774 -0.3604680481435183 193348320
22.17475264654326 0.6517613793862604 -0.4331095536224102 192303904
22.47486415648644 2.351444746741393 -0.3716467935819915 159535280
20.20740321961206 1.007647753952937 -0.3595672301995185 183923312
21.67516605484548 2.305715479248152 -0.3916680598498301 176455968
21.72198615580221 2.18324437141947 -0.3762727133219828 167968960
22.26934714582733 1.576000327205803 -0.3564747797302696 194392672
21.79798759843944 3.110855732785499 -0.4647451434274982 153219328
18.86754144320003 0.07654336182690444 -0.3312486979786806 173384080
22.85212683115913 0.5388977713258825 -0.4772252212034449 165892656
21.48047867010472 2.49361937711843 -0.417249916365815 185971152
22.26953472659842 1.680591879794312 -0.3586014416836886 196498064
22.53899358858905 2.295081885468746 -0.3708507803268123 148975680
21.78665328603769 2.939945387999034 -0.4475394878306618 153247984
22.69467949512711 1.236692348910941 -0.383136713356508 198582928
18.88883339184995 0.2843263948510244 -0.3446378483348936 175341936
22.51355804777097 0.1562203240926379 -0.4723253891780104 146890880
21.96782899126288 2.752772478896281 -0.4217329556920743 189174464
22.62793157885831 2.182582381948722 -0.3765003181808224 174301408
22.53039650488248 0.6409253432572987 -0.446661289712951 187019920
22.37457902895382 2.583008753529943 -0.3865538101300309 152146112
22.04933361907645 0.4942781956529987 -0.4460236919313861 174391728
22.80211020212501 1.819488373621986 -0.3852934513108783 152203408
21.81209344857076 2.297123951363599 -0.3827183460419675 148979776
20.46988177381646 0.9675472432195956 -0.3305854680921313 146874512
21.70015331426012 2.693808273337426 -0.4267450267373441 193299168
21.97872894980775 2.872645629244062 -0.4330476787045908 180802176
22.06097363087297 1.260905727789595 -0.3475874495922948 201822960
22.17451473666058 0.451012720561262 -0.4578671443496304 160637216
22.36881099601129 0.3828679389280906 -0.4746005853479916 181850752
22.30304780119083 2.766199449811805 -0.4088578400461839 179696240
22.07863096882093 2.030292126468245 -0.3506275472911025 202834768
18.66636303659462 0.2778162276708256 -0.3657220898733298 163725520
22.33319072789747 1.026775823382979 -0.3903086793612545 159543472
18.01984353709745 1.183219546090371 -0.4701755845379575 176546208
19.36057313190878 -0.1733872889388185 -0.2556054426221581 142684240
23.02759291836063 1.437364010024296 -0.3935977052178788 190186256
22.36103656839161 1.200545108009361 -0.3700118842489627 183906784
22.68124636424768 0.9536443395164567 -0.419783253004022 168001776
22.56863912188582 0.3128264397201725 -0.4951653708412226 145846368
22.14628558607684 0.7761838957073965 -0.4154036539568198 180707824
21.97868984466944 0.6766626908098576 -0.4173276791607387 145825888
22.2728048716844 1.219397355372174 -0.3596911539260524 189117104
21.66758405644752 2.397867726251051 -0.4003895541500077 183869984
22.05255994250223 2.455119461524917 -0.3890202443982715 153227472
22.3667329121217 0.6752486126279887 -0.4364341088468085 143720528
22.37345860924213 0.507177149142047 -0.4614803188107292 168059200
22.29864254762668 0.8016716935925662 -0.4175871575969729 151105712
18.03181265530581 0.9225062320537744 -0.4476872277621299 191259264
21.44441734438064 2.635406787895934 -0.4330502414826647 168038832
22.46502762699814 0.9048294493312189 -0.4100007506472929 166908128
22.58181716235391 1.235477325734237 -0.3741082434453328 160587968
18.74576080757757 0.003234551142095234 -0.3249935683171098 150032496
22.59647967964322 0.5703953775326995 -0.4631462815088058 160624816
22.6283847806218 1.073728005510927 -0.3954496187583753 165851312
21.74089479490395 2.869040592574044 -0.442031208300217 147984528
21.99665475000493 2.056563652896296 -0.3514475814355196 184947184
21.7899736682685 -0.3032416802096418 -0.5368525014817834 149000384
22.54030483150623 0.9599737088350007 -0.4087489553653514 151093344
21.37762946401689 2.477922446855278 -0.4210955719323081 165904592
22.47279994014763 2.238138361872299 -0.3697196632040652 172159248
22.43864560212339 0.3327239103329562 -0.4824902024666745 162759008
22.09045842703389 0.3794516465574779 -0.4616436318661978 188101264
22.6849361131409 1.138472874908138 -0.3896192493178307 159531264
22.98779332953872 0.4407671109376882 -0.4945778204882775 191300448
22.82433521336751 0.7856971052406099 -0.4434165425530295 185995984
22.58410394014875 2.018761885738948 -0.3744847468545758 162701536
22.00516381589215 2.161631561054432 -0.3626692369470639 163758288
22.29860976411904 2.593526118204055 -0.3910709259163748 149008544
22.67965943137089 0.8527805288893801 -0.4276156815682671 177529264
21.8842986911735 2.226503641236537 -0.3741965123496848 212132768
22.76199826984869 1.288396069306233 -0.3815856860981908 197595808
20.95062948861656 -0.5551754052708994 -0.4851191128714364 177578400
21.4759891125364 3.005054550554605 -0.4690240273579491 162787616
22.93058597566928 0.9288484370688772 -0.428170865995391 173302032
21.73989860644744 2.083590779502553 -0.3660112731060333 152207520
21.53265268193086 2.407814524527581 -0.4061260760991829 165945680
19.95771259286785 1.328868380364465 -0.4245189500187972 184963808
22.89971020144965 0.6337310769728598 -0.4654802429784655 147996784
21.90411460576578 0.3290624385105959 -0.4615077144890236 164872560
22.25635723723887 2.869206942942572 -0.4218791318348781 199615312
22.4675409566179 1.020962678519721 -0.3958288143013466 178467168
22.18119398000224 1.667747048489468 -0.3520477934225389 154345632
22.03911369751467 0.8265753584629945 -0.40213686068716 176410992
22.50113229986598 0.8224840400939176 -0.4254523523869486 155353248
21.76200062159821 2.742634248904536 -0.4299340920537449 163815728
18.39884210306682 0.4490831814696959 -0.4266098456286714 199607072
18.42897908059621 1.015612032089105 -0.4946862886174213 175313200
22.75669656691418 1.971688015260833 -0.3821899593859065 184926736
20.92629440005926 -0.6508773778438718 -0.4826503050413339 171237776
22.06913863085406 2.656669823904029 -0.4087440088921538 159559952
22.39700600920177 0.5955889028244519 -0.4482734734308235 174416240
21.79596317910482 0.1389681177410277 -0.4755603150134443 151117968
21.84549767391178 2.025127916039944 -0.3554205139148891 188031472
21.37108414060745 2.814161460561892 -0.4538411087111246 172315168
22.30218019793642 0.4619493762234093 -0.4599165628016891 152191184
22.22053943440876 2.198767788860289 -0.3580868868987092 197554896
18.50961128463089 1.24421743858961 -0.4970732243061949 185922016
22.68717155690227 0.6485173753218041 -0.4562443488234781 154304672
23.28583912059226 1.047000806351704 -0.4354053348869732 174375408
22.50259149914444 2.429336678586363 -0.3729059423323446 144797760
22.13548164439117 1.059857632918273 -0.3757199692175812 202810128
22.207528850286 1.98918919194691 -0.3543650445344971 193352256
20.00641257671407 2.364293223809568 -0.5201529213325039 156410128
22.60304069965263 0.3819279489361204 -0.4797197955242665 153252000
22.1610924393177 2.273394449130751 -0.3659651541597594 175403424
22.06836828102334 3.182728093946359 -0.4592782714037894 167035232
21.60560804320768 2.568403074508126 -0.4198419775826049 152154240
18.14623125516745 0.6800130611641323 -0.477831882880729 172228944
23.4433942425669 0.8477263416216506 -0.4569599580247596 141606960
22.81302763838944 0.2932819123389572 -0.4903111657968098 176501072
17.93585256259672 1.148596954538177 -0.451961473080497 182874672
22.05506481956486 0.2773456508728017 -0.472484264544575 174334352
22.17335512539849 0.547389108904873 -0.4449419716901664 196514432
22.25198745648493 0.3888280263609423 -0.4706884769929163 210133920
21.03099963245938 -0.5055907278987468 -0.4892883680807424 161657040
20.43289078178217 2.50041447635591 -0.4982659921590108 179655136
22.1677386011298 1.5910997642494 -0.352076547053036 162779360
23.21414665386461 1.109588752352284 -0.4224330053159298 175477280
22.14694386315696 1.39836390544158 -0.3501671522762825 178569600
23.0174134622041 1.3172288984922 -0.3941534996754335 145858656
21.9897137634017 1.397636833984538 -0.3423311322999754 164896976
21.98858282116581 1.856469532405953 -0.3437282701577613 159596736
23.0037926540043 0.75784165169602 -0.4569793036647523 147935344
22.84252628820178 1.657303413208328 -0.3856311977771675 176460272
23.38048631781236 0.9496800601396747 -0.4514868589416344 178569856
22.13938877953052 2.140789452803895 -0.3550973429625173 193339776
18.42086778580449 1.341376480678979 -0.4934809802720216 207041120
20.74502530664203 -0.6939004576200622 -0.4568202364191065 161661136
21.90768170130649 2.926465716584933 -0.4403186130876359 164872560
19.09447592115629 1.913987547566795 -0.5295882260679058 208089728
22.03343375145544 2.248153951792948 -0.3690073884985979 159559872
19.361979217997 -0.05073597829673965 -0.2723073889351075 178614656
22.16195382104993 0.9852873375017659 -0.3855498855575756 184861248
17.89532952128149 1.229149890377075 -0.455871409125259 159604928
18.0635644164099 1.024222492872265 -0.4720272594304724 199619216
21.57767283036875 2.643917783223694 -0.4267269532350354 152199312
22.20403478068229 1.098271145718313 -0.3735909459382201 174313760
22.36301784103802 1.856860810550168 -0.3621026187262622 163827952
22.34472754950398 2.479554835602944 -0.3781520536578 153252016
20.7419148452739 2.716861280201104 -0.4933658324152605 181682576
21.2861231820021 2.786156180636211 -0.4556372646804981 177570160
18.07216124283591 1.112383064693917 -0.4713441089731552 188141904
22.53466635744465 0.235285797228199 -0.4923789160560241 146899088
22.14888891533767 2.932028534866336 -0.4308602858018776 170148144
22.79676051660768 1.893855336515862 -0.3857306484394263 188031536
19.372687093559 0.3777088685986648 -0.3364713391893734 174391664
21.41609747734681 2.728720550651758 -0.4432440636463698 172306720
21.86000241073151 1.793149474054393 -0.3370184297140096 154337408
22.06482710314646 0.07348553470123463 -0.4989712285461889 168087888
18.59350984834783 1.612161635790614 -0.5078099046419813 185938352
22.13356927206426 3.255880856046971 -0.4632308223578225 202699376
21.76599776021846 1.875886304599573 -0.3442494244028997 174403792
19.71050094188253 1.527861561865092 -0.4639742721816131 151167104
19.75278635195466 2.23124047786145 -0.5285515950040385 146903136
19.8958845825939 0.4184790316183992 -0.2965548506975227 145866848
20.75260403739728 0.5423376566127741 -0.2971929426378608 149008512
20.19802958056424 -0.7386651036538004 -0.3581141965867645 173216032
18.90398009279099 0.002091416346799112 -0.3160754625431283 145862720
22.82888083692501 0.889531530109362 -0.4331779669710298 179667456
19.28193896084271 0.2558177590215465 -0.3112848161814886 170119360
21.22257740131538 1.727966153287281 -0.3559642810644457 146948192
22.14824641115922 1.271435286133454 -0.3522798620862447 188072416
22.27103478980068 0.08137865738521534 -0.4981216568533408 170193232
19.63568485772056 1.222483069055976 -0.4383235315111829 156418208
18.60679462698493 0.1940566070957966 -0.387954418901508 178536928
21.77020481213915 1.984680085281438 -0.3543970628241842 173326672
19.74824518410728 -0.3185456231696419 -0.215721001470849 168100144
21.81233136880615 2.81459782785266 -0.4339203892216425 184808000
21.30209159214109 2.03254955079386 -0.3808758971810732 154304656
21.28524852612399 0.4693004001978546 -0.4142631292649032 175468880
21.33913474801653 2.962605807909208 -0.4691079449774455 163881200
21.98632267761026 2.501000930977456 -0.3960929071972329 145846352
18.26689894920035 1.423379022653669 -0.4853202119114882 163750064
20.1924563360405 -0.2143359767962678 -0.2881200449921593 189051216
22.15162303911139 1.861273777583466 -0.3522950724905193 188047840
22.53063337427481 0.4470673922666583 -0.4697539259263749 194319056
21.47076296634921 -0.4155679368787527 -0.5386220527612744 159617280
20.43963021528576 -0.7479800787972353 -0.4071863470863481 152195232
20.86307077728869 2.614868615799214 -0.4737491108061461 194396768
18.75930199397644 1.776784651648768 -0.5273558351593362 163836064
20.09457050044695 -0.6474359830592934 -0.3278357783481933 183906912
22.47269462036808 2.521238267296306 -0.3775636444124163 184873600
20.07673109915067 -0.8076403381815109 -0.3460852003414669 190161472
18.84611619508117 1.684022066872435 -0.5293967277115097 209163040
18.66769067720103 1.571135522682108 -0.5125840481658698 215483296
23.48843297987201 0.9859531435015951 -0.4524580596514694 206009392
19.88915112622475 2.358002575820974 -0.5285110637173208 187064896
20.83877394450469 2.769970534566158 -0.4903707016524711 187069120
20.64612219141786 2.733339392549945 -0.5025212146660949 199688880
21.88454954671756 2.346767400769469 -0.3857111299297704 164798656
22.17562847617238 2.604227211812633 -0.3983076643619923 193368896
23.5662806989827 0.9368999438356653 -0.4478901509312283 155345088
22.69718145247831 2.116137498392964 -0.3828614428212665 161624368
22.15666543735297 2.505723801984781 -0.3892670817719901 150057056
20.6415377239454 -0.6832026366605374 -0.4381016231354691 187019808
20.48568348117748 2.010200866223215 -0.4479780869818389 192303872
22.53379575176322 2.610317124252257 -0.3825885391418614 189133504
21.02940987982544 2.910602622028526 -0.4883165636015865 157450432
22.683629577121 2.402436972482441 -0.3799495332478743 177521088
21.43806534414777 2.074322000969122 -0.3773639074977487 177594784
22.38123405599677 2.74923386571795 -0.4034726941622386 176513488
22.17354641651018 2.803113255119744 -0.4176429220930168 159580448
18.17508966128804 1.2852423932735 -0.481080502286853 193376864
21.41552764426099 2.328727746764929 -0.4034726387811428 174367056
20.94528909643868 2.86177998333522 -0.489737420041481 175427968
22.37560784086345 2.87960925464224 -0.416464229989902 174461488
20.1600470243773 2.499326018316819 -0.5211380607842923 192336560
19.48898917338161 -1.11729602877019 -0.2697243253428952 196444912
22.05034507660573 2.760697113431337 -0.4188717760694275 177562064
18.13832092556859 1.362681366504711 -0.4774690057210259 193311344
21.55179566773778 1.817964853740942 -0.3480306923286598 153243776
20.93038386457545 2.757670425853738 -0.480850722444999 173359536
20.67826825142929 -0.8092934828068395 -0.4393367355080425 156369040
20.7782203940376 1.80838834135955 -0.4014097296011894 189108608
20.73455720985357 2.582919194893718 -0.4806321936963873 173318512
22.33200642013076 2.226654711596779 -0.3608737024457147 159543472
19.53520739260986 -0.9573093385382514 -0.2565167087363746 162717856
20.2585046734509 -0.838982169260228 -0.3854274404158677 148983904
20.6052896657918 -0.585704918258119 -0.4114824050422045 154284224
19.6595477954292 -1.220092032662599 -0.2853195279303428 158515392
22.05575575381486 0.6627583955221753 -0.4249264104288836 147951776
20.77551050584347 2.4994930976364 -0.4690830038108434 187069040
21.08351413153342 2.611667807647359 -0.4542629799636521 196543168
22.25638172541827 2.457087306202319 -0.3804500770692529 164811024
18.94389458126274 1.858010116038199 -0.5294152073791483 164888800
21.95785973037864 2.659710134492274 -0.4127087607669681 167018864
21.79568787194649 3.024088088801231 -0.4550155110868255 156414192
18.62882086287631 0.5932241534080397 -0.4295571033022613 184873536
19.9706341653916 -0.6572550548166176 -0.3036419149240775 166973824
21.64540265294041 1.544102655996337 -0.3267314253792651 189071888
22.22042766275911 3.254763763246531 -0.4603218497466157 199529024
20.4686263323184 -0.8247100670550922 -0.4032525627480237 161669344
23.02468050310931 1.818544777575048 -0.3957731298007602 187048640
18.34548519494139 1.378647741283543 -0.4880838636689694 168083616
19.96523555495945 -1.103742452529408 -0.3580556883246765 182797008
18.34701581705973 1.50914031597362 -0.4879524837363589 214360848
20.74159153166985 -0.5803971135800007 -0.4454030767227634 156451008
22.17296431163456 2.705446794574279 -0.4074539907839612 195461712
22.65944696568432 2.473645447342835 -0.3805580589036961 170123664
18.3014668883216 0.7849989966834363 -0.4669532599497628 177508848
21.26635068339506 2.161817284200959 -0.3951394374747348 158478464
22.39892355627373 2.655371049962331 -0.393331985478955 170185056
22.62718276171711 2.295831754638542 -0.3765915108919464 179638704
22.2900522040247 3.183715576026577 -0.4512419872955036 163848544
21.88777551364593 3.347544179767279 -0.4827963298582782 187019760
20.04538879922164 -0.9917873133706826 -0.3446833497210356 144789600
22.45025796273194 2.926510479260906 -0.4183126696894542 166990224
22.06139460200271 2.978963052237187 -0.4401856100512552 175370640
20.30765149752332 -0.7244526738413167 -0.3772003790818106 198513216
20.6741500545181 2.012013606006482 -0.429727116314952 158478448
21.00384178680574 -0.2861110418790937 -0.4573552795832987 149020784
21.02202888592185 2.668124715343827 -0.4648169978372632 145842256
20.04766477796549 2.436720604056166 -0.5243170390516716 161693936
20.43593640170869 2.389538180127662 -0.4873236293922066 191242816
19.94744600375384 -0.9554658727634973 -0.341711112828567 185930192
22.92305123406131 1.892132707003147 -0.3902487939362984 145879152
21.41274803403359 2.410763647626562 -0.412762356601183 173277728
22.29428498157494 2.987515280382735 -0.4318421743045375 162709728
21.43016406860775 1.888780170464891 -0.359850419959191 151187648
22.22930399692143 2.284132760037639 -0.3640852219896318 173314496
19.92455169098956 -0.08982991591941175 -0.2274151547784277 191259216
23.33962103292322 1.150774786904094 -0.4212626258188127 154341568
18.54868432759655 1.543342841999106 -0.4963852986789006 177476144
20.21736214285412 2.420071669121838 -0.5093058989174186 165916864
20.2861564437061 2.162645142543412 -0.4774227391173127 160657648
18.62963177523509 1.471388321741885 -0.50858667100088 190173616
21.92367054223624 2.015655639249675 -0.3520303102387618 186962400
19.69650591148718 -1.144294817114075 -0.3043899833688188 173347184
22.01625782878394 2.586531771151177 -0.4036110287651822 163799424
21.46834409792374 2.230261069287607 -0.3916634858576638 150110304
20.504787050578 0.7561456907257135 -0.2964949546199578 181760512
19.58934050139578 -1.190472771543768 -0.2885225469307446 209085056
18.30731929662619 1.304658882489826 -0.4869947000818531 199676496
20.12341657490976 1.343878195446536 -0.4106484872736944 221770816
19.98330962992317 2.251923297712107 -0.5116952187775771 190206592
19.26721255418531 2.023913401168552 -0.5298799521043517 202801984
18.28948024150223 1.574009384666799 -0.4848931095216133 210223616
23.58777945441313 1.04871520675677 -0.447121454839236 204903488
20.15727931479015 0.9397383342987304 -0.3537877268236853 159572224
19.80397049992012 2.392002890175694 -0.5345424677466017 201798496
22.56872850883447 2.941395022855545 -0.4140491565377483 149016736
23.45052585096115 1.203207417692568 -0.4195238142637975 198579024
22.61259378762729 2.875492158853704 -0.4045584881292787 153256096
20.2603386217442 2.580356002435536 -0.520723234058775 152146016
22.55432846299749 3.111810045698578 -0.4303712411676944 150053040
20.16016686020912 -0.9111464248374158 -0.3682186304112519 183902784
23.34046534169801 1.626911801695084 -0.4115415971682118 191218160
22.83762763863411 2.470125236103137 -0.3903160322330652 188097376
22.64338418421099 2.66721230177508 -0.3844432763676259 179614240
22.56185855559072 2.545893486228163 -0.3764603267166401 190100096
23.31706445740551 1.444284288463722 -0.4092997295359677 146915440
18.42496731208521 1.611751708081976 -0.4930999994525241 145862720
22.60695813732293 2.741696481968244 -0.3926103828212157 184849024
23.50351408287545 1.274572540416706 -0.4197953374803005 189096448
20.74307001998351 2.834244236979811 -0.5032011536170384 157511872
22.73588009115239 2.569339511772653 -0.3841020540443075 175386976
20.18327724860844 0.7680649125383849 -0.3257000042339599 197518176
19.08185959776205 2.025987551254154 -0.5348256032548339 196477520
22.90638603597289 2.296485860878922 -0.3934040079484923 186982944
22.79824297583931 1.361584624575353 -0.3815976199847978 181703184
20.48385085725008 2.702521229496814 -0.5128647600733569 149020800
19.86735427237027 2.277730933070828 -0.523238572940978 186040992
22.13468220558299 3.421074192159437 -0.4832964209149096 198464032
21.93816784919256 2.298200111973731 -0.3771618208588999 200626864
23.43228858311134 1.332023946391438 -0.4150300580065658 146919584
21.84305376285031 1.914032437482941 -0.3446166776606513 200680032
21.69583000596274 2.479706099793601 -0.4062729729418971 179614240
23.02428068556419 1.937147461142729 -0.3955430894487777 144810064
20.14880475124749 -0.8259865556357791 -0.3640584981849211 158507184
19.10955419962986 0.5749001288116782 -0.3860843426171746 159572160
20.35851473283881 2.595493559580142 -0.5138177542545715 143720496
23.63803016642115 1.107218087260016 -0.44449839052357 161742976
22.9227844495655 1.361901611721843 -0.3889965521458499 145875056
23.40660010578227 1.047605884889212 -0.442762203299928 189067792
22.07124220334557 3.490309107651274 -0.4917100741725841 167035216
22.5913262835261 1.878116958650601 -0.3729860730619418 161742976
20.36309263244197 0.6687145925676274 -0.295219622094989 147943504
18.42835095440678 1.134338292550994 -0.4734843655988119 227951568
22.85930854850284 2.714436778466432 -0.3906857380174344 168002128
19.27203586552143 2.120739396715104 -0.5353139539125127 157421808
23.53935462907053 1.33982769550459 -0.4194484796569867 210178976
20.29799237395875 2.681191272422294 -0.5272335074983698 214356720
23.3049736683501 1.817231422631277 -0.4095384229655121 160670080
18.75989721321377 1.671484989274412 -0.523047720189394 153284752
22.55902715874822 3.559623293229059 -0.4761306107192725 146886832
