# .PCD v.7 - Point Cloud Data file format
VERSION .7
FIELDS x y z rgb
SIZE 4 4 4 4
TYPE F F F F
COUNT 1 1 1 1
WIDTH 717
HEIGHT 1
VIEWPOINT 0 0 0 1 0 0 0
POINTS 717
DATA ascii
-1.232207105533945 -2.101899217509132 -2.472685105614956e-07 235525248
-0.9113463195962713 -0.5566997281154287 -0.007876553564075588 197575056
-0.07096945101508755 -1.373896356808863 -0.002497247261573924 218596128
-0.4557728698178472 -1.120784499633406 0.004775401782236797 214512736
-1.228182572281037 -2.186852544565352 -1.911768373121724e-07 166904144
-1.084402022979231 0.523937277668079 -0.03382010484476917 203855024
-1.693141612620735 -1.176731149054011 -0.0007523513105224573 159514784
2.467282699501219 0.3478269086247882 0.04972164350747437 218747504
0.5888669567894317 0.4572600989443931 0.07284958477365411 153223360
1.293541931639478 0.7181743637688356 0.1492225459372949 222880848
1.89321488341982 2.491070137735156 0.155581010911586 233432336
0.7000914327356222 0.3459050926789403 0.08000417819791721 225165840
1.879746413669234 0.7170020420259928 0.1097309027090072 226043088
-0.8821988661878929 0.346914795376165 -0.03950403632023813 221942368
-0.7664722576404308 0.4546946678793402 -0.04234002063928727 151113920
-1.472810671579777 0.7124971467681614 -0.04999201406183457 209175552
1.2326414350432 2.075026504187281 0.1989451527190926 264811920
1.288956472606078 2.465097357027421 0.2014083356875683 214455392
2.871585351925142 0.6318169595478206 0.05203735950140462 236627072
0.2905473285176187 0.959103927504251 0.07856838421741125 251385584
1.231296628703342 1.105508252488217 0.1834313894645923 246920288
3.240180093496222 0.5764703740459215 0.03182824348283703 157479120
1.930051301931077 1.109176953592874 0.1460594625162037 334876544
2.460111153229739 0.348242189708337 0.05644879795993972 212390528
2.457823816148165 2.834199061180434 0.1798625563312759 218735280
1.875285286586912 2.463485219749733 0.1879169265898267 231322848
2.571103648033658 2.715536971924645 0.1816922430536641 156385520
3.643654261901623 0.9596611051626716 0.04422348404875167 225035552
2.832245160148496 2.004999337512715 0.1370918031721431 234452304
2.869788757615563 2.220147156103024 0.144716253932681 253499152
2.581876248777599 0.461893041421043 0.05605720583847981 160600336
-0.0902955899155656 0.4811391293033169 0.003698229405761287 227157168
-0.06303162393072215 0.5742680790687893 0.0118263583225197 161710336
1.880830877745817 0.7135999325927388 0.1145110546346454 210244624
3.681225483557604 1.18100381418672 0.05524732852256932 232346976
2.872049104387686 0.6329012381626764 0.05346397626170627 236622976
1.290614028843376 0.7152530728238295 0.1519477994059647 221836480
1.927629274109209 2.077331695527073 0.1845197105718196 324316800
1.932298165468717 1.106876981472723 0.1444415666191741 280120320
2.871154587835542 2.553334457836042 0.155284717156191 228176896
1.584991869413184 0.6291493582750701 0.1266118606865818 209241024
2.879405084682418 0.9648204990775953 0.07799593586878388 261945280
0.5874967598739254 -0.6240365548970422 -0.0101473497653173 154280144
0.3306919916231708 1.176388829088148 0.09876226908181339 234452320
-0.7643840181647151 0.4596812603005718 -0.04155380607573723 161657104
2.836434919015001 2.007503030375994 0.1334547742594979 232342816
0.2952175815325426 0.6295119324308061 0.05460347223870689 230290480
2.872779255420927 2.221083838973395 0.1401379546258654 252446480
3.6402123313276 0.9683362547288976 0.04725386235761676 259819440
2.579884276346176 2.723461754360992 0.1751506183438187 163774752
2.459416107800478 2.836536029985824 0.1758732881184335 212402800
1.285399220093528 2.466210637374974 0.1994399027215449 229233968
1.233041988048227 2.077072291401947 0.1976897712498192 256382192
-0.5158350113851646 2.002463526353806 0.01554720295278174 228132144
3.594886110933903 1.871583556703576 0.08174310098966935 258688560
3.277229210107853 2.606320099602194 0.134635210333548 157475024
1.906719209065243 2.517384971350835 0.1877332574413847 150069424
2.891568001353714 2.710748603027549 0.1590635933393987 209269696
3.257417059307423 2.70215268096021 0.1389386977422308 228213952
1.23896729645172 1.102424439473001 0.1829001487806666 303230336
-0.06609292263301171 0.5743513149335762 0.01227285534048129 156418240
1.927199683542369 2.07900354654365 0.1851483375644799 305343872
0.2900188681731428 0.9619616970506077 0.07803055591064413 257714048
3.681427932024862 1.177791226148939 0.05453417855372281 234452224
1.58257827133348 2.55120061899846 0.1938638450991655 215569504
0.2895240461770508 2.216293166856414 0.1031805611589554 260876240
2.79002242867946 2.206292563625734 0.1423283282348463 188121696
1.292359942486704 0.7194833639635515 0.1531401896413626 224990304
2.870066295488314 2.550417038604192 0.1555327464377789 239768736
1.880665738666698 0.7170501807928196 0.114988210585627 238720416
1.934517466093289 1.106254878789328 0.144993543238476 253232320
3.638134361201568 2.549504134650738 0.1111262685057201 230253584
2.917784395223453 1.316933122363584 0.1026688569759901 259728960
-0.08731956593810186 0.4818951217202376 0.005434764618129926 222938208
0.2440543150647535 1.868191530167243 0.09524988834166818 257627680
3.630402248216516 0.9658948138254763 0.05668203853992182 246118032
2.573380341970211 0.4645777090297367 0.06811682519036785 146894976
3.679316934265806 1.180355863280785 0.05565237941267328 233395552
1.582981888815846 1.44596525535897 0.1830302692063283 173359312
2.249051321023434 2.658667010464522 0.1798225785374252 190170096
0.2762842380909407 0.4748368053351931 0.04400974578121608 205034352
1.28964652027509 2.464078097072196 0.2001732045923359 233440608
2.575688143254436 2.723914338135395 0.1750037221352839 149008544
1.230658519892541 2.07511112500767 0.1974294506192004 259564864
0.2946129863359037 2.553623868567209 0.1026747110857431 228197408
3.28358005705423 3.932408780881758 0.1337730961871727 158527712
3.231827862972033 2.608316763707881 0.1356276118041672 158527712
3.932401675461842 2.724976679152203 0.1188643212447295 153219280
2.459406620146861 2.839299774903997 0.1726863751648681 212382384
3.644600156671521 2.552682702797644 0.1085881875626343 241898752
2.834352389517517 2.004416321952498 0.1319309597403347 228132176
3.260447223979937 2.703425675381459 0.13576885767094 223999088
2.922061969610795 1.31773526584989 0.1028465037949122 247133600
2.871822115519537 2.55507156886606 0.1523408154315802 226083808
-0.4720015130238463 2.219262925136754 0.0261950743153967 255604544
3.592871593014881 1.869368862723155 0.08101704832938708 247129504
0.5887040084030294 2.727140582821728 0.1362134641813784 143728736
4.05288615816708 2.841467270708196 0.1187268626324825 222950080
0.7060621948304563 0.3465444182509284 0.07852111833492066 217682592
3.279956012990424 3.927436181313361 0.1372427204984055 155361472
1.583894011603322 1.736472100673259 0.1892403001642892 172302528
2.872098156855789 2.219457888038501 0.1397000607264227 250341120
0.7007708111904787 2.834815025527911 0.1480783458437405 222995056
1.238418550794362 1.104256570425286 0.1837164117047584 328519392
4.584191962671588 2.077048680817276 0.08937093986334672 299085216
3.623164415705506 2.71088779186862 0.1152496377188016 207172512
4.047744871318787 3.700462723970596 0.1321212558481903 224100864
4.638055357409723 2.469925015631326 0.1074806791107582 217617552
3.936910402288678 3.816896226456055 0.1311536152810935 162709792
3.642263494833809 3.98609430930379 0.1423916068442212 236610688
2.892177262368221 2.711678966514157 0.15792448773549 209273840
3.619887667875347 3.825699486424035 0.146464415652497 205013920
0.586753176010322 2.726280933226177 0.1367797055148523 149004448
1.28988394061591 0.7203001758869979 0.1529961484362883 226047104
0.2878346409796093 2.549684815199877 0.10011956163134 233428048
1.228289894097799 2.074355021772671 0.1961907916246299 258520368
3.638464978427555 2.2194895396962 0.09605889698935649 261928928
4.056072126480917 2.839252182849322 0.1190460424321235 211337872
1.233899731647783 1.102883954268583 0.1797526478133139 326422208
1.286886891273561 0.7156980992505714 0.1486824127954821 237655392
4.632797832035845 2.47015200284566 0.1107358982624211 212354112
1.872003001862603 0.7099790040122236 0.1102591122633685 211276832
1.581179349978842 1.444494821052667 0.1797213923730785 172306640
1.934191783005412 1.108091815563718 0.14290299074384 267982288
4.58490704281742 2.077629748009707 0.09150190188555246 332754720
2.920570598654325 1.31916577377936 0.1029757271507689 251327968
1.493082100053494 1.536744550017351 0.1909266957101247 238695536
2.581045870976037 2.724429282052665 0.1771083850175318 161665296
2.45834412888448 3.695717912454549 0.179085682434646 208171600
2.890479445721938 3.825414968403231 0.1553427518855518 203998048
2.924962919277411 1.869830254445748 0.1191695665293134 247125344
1.873556753268286 0.7091392199299905 0.1074258583101262 237659520
4.636188863714489 4.066170213081044 0.09735810955862016 220771488
5.223478232673537 2.469889170665935 0.08785598583884498 218649696
2.835827774330559 2.002704446923852 0.127963253312967 228119824
4.047041922533915 3.697193828064408 0.1383725972965723 223011392
3.639587803719617 3.982234292075474 0.1470175260740935 235549792
3.618942848186508 3.824043636564703 0.1508424639395714 206087072
1.927137830770731 2.074668098769217 0.1832487427104956 351703072
2.574927188853994 3.805582020934266 0.1628725792592879 144781424
5.277332242671869 2.081020163165 0.09051208748075237 294833376
2.891441667169376 3.821744186548969 0.158962803309551 203993952
1.928192354312066 1.104635790332725 0.140381813390799 311700960
3.675766456593402 1.193409756746936 0.07592977339087552 236570000
4.582233976198105 4.45845002549875 0.0886163039391321 309587392
1.29459090420381 2.466147158519045 0.2038997283047699 233444720
3.592652370064472 1.868070091369865 0.07932039650070423 247129520
2.001179198829808 2.680138782245963 0.1823577237340716 227079472
2.923549735688391 1.320017110671074 0.1030287760220354 248182208
1.927352532447692 1.09775281628822 0.1411260417318793 260556096
5.224654038219081 4.068206281923846 0.06492343361626926 203903936
1.582375431036293 1.737979388101076 0.1887141490930679 167022768
1.582377949749244 2.552350945731529 0.1926445236524531 212403216
3.932963052048663 3.813695082365991 0.132713048369989 163770656
3.590911665513121 1.316842281656022 0.06130776707218285 251332032
3.278766715482115 3.926063564129425 0.1387837793839829 155361472
2.872551651776737 3.981539029661599 0.1444629130712986 233419824
5.82114015665991 2.84451699588465 0.05470642905731286 220922384
5.810630154901765 3.699655978751474 0.04738258054303529 218751616
4.6359871264919 4.069992553861943 0.09527495219354874 231318768
3.643379229962801 3.977636947812139 0.1479476576092342 225031120
5.919986840177319 2.729284938257081 0.0583153259539532 147951760
5.229629181911931 4.069993914147868 0.06205257543102572 211297312
5.810784178447981 2.838844750499575 0.0567381051734126 218751616
4.63567289569969 2.46658773791661 0.1104670508361598 225002736
5.219186075430865 2.468676338273802 0.09303815495111867 220763248
3.933137074045072 2.724853752516356 0.1222688260094565 158490864
6.208604033172369 2.556706327239914 0.05485896751141573 234517632
5.269928807971114 2.086216216249381 0.1002113605659118 265831824
3.616805375689345 2.711592758961169 0.1147927598306587 201822992
6.171937028623387 2.011730506371902 0.06230861146458659 229176624
5.805021712198399 3.696759644843749 0.05543123828497606 219845168
2.92300761151446 1.318108638141972 0.1001712154534936 257652272
2.869770829509725 2.550203040200653 0.1510747142718598 243991792
4.049856570919326 2.835356664108124 0.116683044006734 222999120
4.58709947549218 2.076578604350627 0.09252543176032209 362237920
2.893758008089396 2.710019946013961 0.1573815220173757 203957056
3.587611927495771 1.308752712814662 0.04878694445970608 248178080
5.917239238499391 2.726625775734064 0.05924703501496521 152170688
5.2241450275587 2.468942287128719 0.09147282058548542 232375536
6.216739856878537 2.55826944561748 0.04605396057506495 223974352
6.239750475388834 2.712196479692794 0.04613373702472547 202924864
5.272544619912075 2.075644433579711 0.09211723245531968 353824576
3.827314575543484 2.312462572666488 0.09753389005473483 201847568
6.238559534554143 3.821887940763154 0.02905600904445033 202883936
4.929048742116092 2.55719077051954 0.1064248413523599 205022080
3.592012116940701 1.871525822483791 0.08239531827015457 257652256
6.573697260888387 2.612788266856767 0.05297173191052706 157479120
6.579871046979209 3.927684917403669 0.005840178642606625 156418256
4.635068523114709 4.067603322348625 0.09558735430934893 235545968
5.817038749332302 2.839809998491366 0.05206658362849894 224100896
5.805866089027661 3.694112068516689 0.05560134586209337 220865152
6.270926554063316 1.871813272450014 0.05219546818830999 253429232
5.226453335829323 4.072394985142474 0.06541206274872773 237659504
6.213683448418144 3.976635805408447 0.02071542707622258 220795808
2.923418241459631 1.871081740880888 0.1232896209512058 263960176
3.275504133927106 3.928579648777217 0.1337472187858821 158531808
2.865527343464296 3.978764482492672 0.1413346985613133 226087904
2.879321774632596 2.222805661685828 0.1443268712953449 255608656
3.642846204138399 2.221642978888609 0.0977367105482166 245069472
3.639559722052849 2.553115310795401 0.1076895169505412 237655168
6.993067828595418 2.553835548571715 0.04583533555617404 230261792
3.285463936912012 2.606587229749468 0.1356526941053158 164868400
2.865804134783928 4.319107417357245 0.1090125779337094 249284352
6.624792698991925 3.924135598494308 0.0027958207956094 156414144
6.969935845118322 2.715283026097002 0.04641582121759602 203957152
6.269796680323286 1.869785373923053 0.05184396527422882 257635872
5.920661015632928 2.727335450380735 0.05882569775761941 151113904
6.241227478865178 3.820734331099637 0.02634554506386789 203924368
3.678288520245836 2.008556885744498 0.08343262780968007 237610304
5.928320992492315 3.811680328175882 0.03494034606715442 154280144
3.899547098825204 2.354676265850617 0.09882748676331718 150077568
7.036099622728488 2.007571457513732 0.04879010018141178 235504976
6.976733831397746 4.310307100517266 -0.01277973269252264 252430128
7.398128593216148 2.841296819174468 0.02084214584635326 220893776
3.632798253621815 3.985429583948917 0.1424106211566059 220750704
7.38586710160816 3.695932871150784 -0.02873412307888512 219828816
6.987599197897132 2.555572265069206 0.05115834506771457 228152320
4.633976681585416 4.067602960048717 0.0931302159806357 229221664
3.931606534487622 3.808045594377087 0.1322749014210472 147943552
7.287290236881952 3.813139889535107 -0.03592719505772916 149004448
6.986323177176581 3.979305503208998 -0.01360434997809226 225022944
6.21866509701679 2.223365589550558 0.0521513221725365 241903216
3.939368618162299 2.724342953757347 0.1227459517368957 156385520
6.219817514764129 2.556222258144985 0.0459368886005566 228172800
5.811782767032772 3.697065506268248 0.05206334944255504 221995504
5.818175449616992 2.842167231460548 0.05361336858802463 224109056
5.274555893726411 2.075579527245566 0.09120146809528404 364335264
6.576164588596066 2.613208648038249 0.0516309451132583 158540000
3.625645012488889 2.712579787583368 0.1247120877187474 201822976
6.970419410990448 2.715189883560802 0.04911306778682763 205050784
3.63726319213275 2.553448278192058 0.1057655253755343 233444432
5.226500897819579 2.470920895753513 0.09293982973598253 236602736
3.587974850403349 1.869697808434964 0.08001650607704246 257652240
6.94008020948452 1.875056091796691 0.05815269206014887 255534592
3.647348428918416 3.978387773974001 0.1502806224403788 236635296
4.588083061420916 2.078359532173962 0.09243485145942626 345378624
3.671747157945147 2.003247622151572 0.07923879395361531 230233408
7.28235038688439 2.731473279099006 0.03876066726796826 143732832
6.934079366075655 1.329527444985412 0.07371594203024179 243955072
7.989493048678056 4.07337674449564 -0.08128609816566454 211289120
6.238273476294694 2.712341751921533 0.04463718857946418 205050768
3.636101628162595 2.222517716876279 0.09199344405158584 242947664
4.587438958406036 4.452165281181051 0.0913219213166608 324316832
6.579053477585481 3.928658054290682 0.004984883348825888 157470944
4.634277851122841 2.467644036780658 0.1078074541222246 226063616
7.978231519197187 2.47365561074035 0.01833057739260406 214463584
7.929105649293982 2.087496573347186 0.05042650747103251 275860512
4.062111221477096 3.690484386087193 0.1457033513572537 218739360
4.637144465124359 4.063926756728774 0.1007047362204973 237655424
4.06096076993595 2.835379375391154 0.1320372891498373 221934192
7.028216964266743 2.011722281363159 0.05613565904540886 234452304
6.272371984779751 1.318973768814063 0.06041823770512182 243963216
7.906892634355065 1.135632698087495 0.09267914851567684 296946976
4.930537061852754 1.741790492914423 0.07819498243925341 167018672
3.955592090299808 2.722734785937573 0.1331539141666024 156393744
6.98821452457259 3.987683510109318 -0.0167181069327405 230265920
5.960649464564167 2.357373453626521 0.05289554928031258 149012592
7.393920141048572 3.698721571215087 -0.03266685999021952 218763872
5.809738682320071 3.698868185688824 0.05111868117273249 217719344
6.57876716637306 3.929943994552792 0.005875614964767651 159584496
5.224763685844591 4.070182658774098 0.06839693375697649 235545936
6.220362878924938 2.553757997181082 0.04650394960633732 230261776
6.219016735174068 3.98223112344849 0.01723985481823201 226051056
6.935660991068193 1.323168192795453 0.06530878205697652 237647136
4.57992054850394 4.460249279988179 0.08814814768323852 318017152
8.569856623643272 2.476040752012662 -0.009852717857986061 199693184
7.2803876376366 3.812798352470106 -0.03282210895686667 156393696
6.985131629819412 2.226862065812461 0.05547329368202801 243996272
4.598578840492123 4.017510096159187 0.09523385205931222 151130304
4.930989290334106 2.552889054300068 0.1050224020753499 215561328
5.921029228348191 3.808597019274913 0.03821296507875158 143736928
7.979361590096323 2.466654538555304 0.01706890361031246 221832304
8.625900016121292 2.081067384663694 0.01402569370179877 315895360
6.222258519102298 2.220521788946747 0.05124543602988949 253478752
4.506135155928489 2.681206957025656 0.11272220620978 224974128
6.605148449856654 3.83294311303348 0.008069800636922985 222925936
7.985880821403069 0.7193379277879989 0.04407561342089922 229217552
5.27412369173013 4.456007161004702 0.05482671581945796 275884992
9.162982171068192 2.844374939321906 -0.002251626163992371 220914208
8.62449187714131 1.109977221500738 0.06021428182567425 301157760
6.182870418874026 1.182191406910847 0.05754074934037386 230229296
7.930651720123885 2.083736256652512 0.04733265695073299 273779680
9.272222436473886 2.730637498033131 0.01620057616844219 156389600
5.92499617766289 2.729965938236083 0.05378699618116951 146890880
6.987548601518453 0.9700861474446197 0.05249561575032487 251381552
6.968240467713578 2.713964215600909 0.05063601409738915 203985776
8.566344270410834 2.471550614246088 -0.007106975281200629 219714688
8.619313432026132 2.07918816270402 0.02065450545064867 336957184
7.927589796447909 1.113277380580826 0.06566254776785524 250070224
8.569674767344539 0.7248246542390803 0.01972057868979192 213390400
6.988468574049013 2.559150956896887 0.05226993130800822 220791712
9.560722143066995 2.560199055725409 0.04423917257708037 221869024
6.578271500952235 3.924801815976421 0.006944073135025694 159588576
9.567375474807497 2.224703565020524 0.06079758522854554 238728784
6.267623172730139 1.87340138487549 0.0521489530668597 254473712
6.234671676853472 3.823349361508184 0.02533362038813732 210342960
9.152810551108232 0.3587122396856279 0.001789387972217614 210297408
7.395141404084826 2.839498325734763 0.02469075754730193 219845168
7.982194084920677 0.7229069592157713 0.04693302575328904 230274320
6.989389034632989 0.6370894251318344 0.0395872420704781 228172800
6.627836175035739 2.608217581529126 0.04952402761994961 162750752
6.271707606529711 1.319083396592202 0.06199555114359317 254473712
6.222885420396007 0.9696156672952317 0.04805039505737173 256657264
9.568600767343089 2.560958776798321 0.04123782856479569 221848496
6.214277646204388 3.976632230014508 0.01890537442293148 220804000
7.282918795409641 0.4658128538222769 0.03259411650149171 153223376
9.271343909440853 0.4648304467545953 0.01308741705787286 147951776
10.30968591509763 2.227255191579982 0.01444298562957119 237676048
9.270388468943734 2.730699018018183 0.01751917924253461 150057136
9.154726152225829 0.3593916976968189 0.002001153555884972 212435472
7.399682664582049 0.3562642098396535 0.03091661992159589 212406848
9.162701912466506 -0.5029162501393828 -0.09619673861046266 216723920
9.947092845688607 0.4918788101416796 -0.03676651019934284 221873248
9.268183726486264 -0.5997641293673583 -0.09423775606085798 153227488
6.603800791544677 2.705771817686466 0.04782457757397249 225051776
9.927198465573658 0.5867230202299776 -0.03620653317557341 160620800
8.620896307599159 1.111129678273536 0.06185180891870239 305352064
8.568162662392067 0.7254714283977305 0.0196017327345533 214438944
9.570742867786864 0.969141567627957 -0.009802836073063375 249280224
10.37319731016334 2.012082468012147 -0.01992376322362413 222856400
9.158783459055998 -0.5060008252420169 -0.09669767708356042 214561280
9.268955188385378 -0.6074749581495817 -0.1023061886383925 143724640
10.33693502158356 0.6363833806347035 -0.07009363983312454 216580992
10.32810145968238 0.9690497890014577 -0.0725759256592332 241886816
9.568648239651246 2.226133358534247 0.06571288661156499 247170768
8.276881756303132 1.742691825713883 0.05283937819503957 170184896
6.939617440876896 1.871621953592584 0.05665911973630606 242894192
7.981167970344717 2.469465294681689 0.01761580203598778 227103952
6.601828673395246 0.6321079299867203 0.03573271022570389 222917680
9.582937131468119 0.4821100658652678 -0.007496506109729054 202949488
6.971096014146392 0.480651764287786 0.03246943259852978 204002176
10.62406624636424 0.4662331390845769 -0.09289173602764907 156393712
10.739907389625 0.3573016722873392 -0.1016088613965609 215601696
7.928066984806946 1.113719236523166 0.06522988728421587 261653904
7.028767965188796 2.00853928039872 0.05756759914986567 226026768
9.525926551773818 1.186145081419397 -0.007996322298577382 221795520
6.939210409501363 1.321699053614543 0.06325694378722767 240805216
10.62885131789749 -0.6127045315188192 -0.08585829936916006 149008544
6.610361170808397 0.4853782091063598 0.03264738659409404 211338128
10.74231021565156 -0.4985993537258914 -0.09637540412021457 211329632
10.37634298197493 -1.334352285964417 -0.1294701611944019 228123904
11.32968548195412 0.7265766388296307 -0.1193304533228535 202822528
9.562169242719763 0.6364042653517055 -0.006203623642249648 221852592
9.975159219315612 -0.7277492420268042 -0.09157287176549313 158540000
7.282818526984514 0.4636443147606572 0.0324970749830864 147943568
9.152946012442936 -0.5028384617765468 -0.0958716428331353 201826848
6.582479839763324 0.5836055970284186 0.0338627909813185 159572224
10.7356804436342 -0.5000126167057068 -0.09517872172341556 214614448
9.27098441170228 -0.6083691908910922 -0.1023001013284927 145838192
10.62580973954809 -0.6110320825966504 -0.0851934748636651 150061232
6.601487978699555 0.4848136428711388 0.02902505263012961 211338112
11.91484511930334 0.727200061933863 -0.09133653924845635 209167360
8.571694058882327 -0.8650574034621382 -0.1530576224649355 187028160
6.887812161624752 1.033116902876458 0.05072154227854428 226026896
9.612837482700954 1.873306913856909 0.03214135567472273 237622560
6.96564725751236 0.4805527077858867 0.03265747082540101 199701200
10.31770421330994 0.4837224516643965 -0.06848772347495809 204014496
7.400577035289929 0.3542496062349981 0.02980529027166402 213451376
6.995390442183732 0.6324692971118564 0.04108494706999703 219743104
6.987707398107291 0.9670925999007299 0.05396734865856325 251385616
8.278565227912036 0.6377656149266729 0.0235952953231785 207119312
11.32689213855154 -0.8714849922165938 -0.108645675455903 218661968
10.37284467271774 -1.33184186412447 -0.1262630607808902 221795520
10.33519565181922 -1.102486605110216 -0.1203914617890364 189207136
9.271494157889812 0.465021561871752 0.01467417341484962 147947664
8.366351176629932 1.545626456276732 0.05859483549740734 226042800
9.562767011469594 -0.7807365855277489 -0.110958746680821 216576880
8.183750578329496 1.648039748144557 0.0644860338464147 218673984
8.270170300625921 2.567386093069001 -0.01074265545281539 200790848
9.563655573354559 -1.115900314639189 -0.1481698900786418 215540880
11.91970763689074 -0.8693746773425857 -0.1032822548353035 216564832
10.28661505592118 -2.020458964394591 -0.09049706422777737 237626672
10.31411567442148 -0.6272809210370064 -0.06927205404497995 200815456
10.6281671596072 -0.6141964559563098 -0.08657399158869408 154276048
11.32705564666252 -0.8692602925171433 -0.1079819781348123 218666112
7.617715774596149 0.5306282136140863 0.04107615852609698 209122512
8.362373989635209 1.655277999681111 0.04905638689287062 227099648
8.278215120549378 -0.7868283472424236 -0.1293957680492253 210277424
8.274722403619819 1.456449538555862 0.06771026859911379 181805328
7.986563119293507 -0.8707671298400026 -0.1172791134481244 229221632
11.27372042959443 -2.224451249708439 -0.01736821885493679 273820864
8.568773485682092 -0.8697099746222038 -0.1536804730612869 198603584
12.49562843086962 -0.4994010710240498 -0.09351516239828545 207114816
7.396985671127293 -0.5040021170762673 -0.04644256901516312 219865600
9.1589276435425 -0.49883397371489 -0.09530835082681424 215581248
9.270024577725007 -0.6088216823072867 -0.1027077837164827 143728736
11.32468440374117 0.7271473540587213 -0.1203314970045893 213398576
10.3725412857133 -1.330541563521985 -0.1255072416171794 223900880
11.96773509605607 -1.256273641248613 -0.09211211176178705 254268688
8.277270400949396 -0.7887369354265824 -0.1319553487149319 212378688
9.483846274344016 0.9845832090139403 -0.002446797835263101 173334960
11.62097298303123 -0.7810526004537141 -0.1047466580123715 195515136
10.73740153545228 0.3569459852445411 -0.1019061661719818 217760240
10.62383608502454 0.4678426152886417 -0.09174666739007581 156389616
7.988657285417421 -0.8713988976039616 -0.121725410864231 213382176
11.32717926482163 -2.611462580987576 0.02116173219080123 223933600
12.61194779435504 -0.6113429991208433 -0.09097875982780829 150057136
11.91033744855801 -0.8684398276961484 -0.09984163884870322 201765744
10.28368501956104 -2.019636503877835 -0.08936446970895445 234476800
11.32804382700231 -2.61635455721301 0.01716921903363011 229213456
9.974107180734865 -0.7290886154048851 -0.09167237545947282 156418240
11.97288376613357 -2.229404703646702 -0.007790204733803529 229004160
8.572946728368168 -0.8685695760859246 -0.1553022808966255 203912112
11.94701861164483 -2.670010648626272 0.0277382222314977 152195280
9.949668823952809 -0.6360752571781131 -0.08136302583565393 220820560
12.90923239442324 -0.7800574688397276 -0.09052694059150583 217625488
10.33312948854186 0.9729620215594547 -0.07277485969279805 229238160
11.62406157065912 -2.703867308476293 0.02914776797299869 202900352
9.565925380789901 0.9725772933652358 -0.00929027632401736 248215280
12.50411636131452 -0.4977414723316956 -0.09461055503105746 214594000
11.32815419391215 -2.619297929437059 0.01811999241915884 208126976
10.7441066363778 -0.5010333709007828 -0.09434401563364946 207114800
11.91620885754227 -0.8695701618773416 -0.1025388319638764 217609312
11.27125447718694 -2.227290135459668 -0.01709630081866403 241656928
12.6136071226707 -0.6108320576907004 -0.09298736582527403 149000352
10.33469047589157 -2.368539962626919 -0.05215798219852427 240838272
11.97213722606011 -2.227918179438285 -0.006928990403293358 234267600
9.380040319117239 0.8790647289752016 0.0080925478905655 197608144
10.33542625126655 -1.103440813828249 -0.1201638860638217 189211264
11.91205058865147 -2.614337154375299 0.02631830899439078 211260336
10.33339416762831 -0.7812887382426766 -0.08470907073110368 213402448
10.23991232628132 -2.306979388383366 -0.06378183077552821 227063200
13.26893463290911 -0.7256714118968978 -0.06458924145967548 152187024
11.9726757689896 -1.258477224489452 -0.09260243250345643 247968976
9.161305359454932 -0.5043154663119961 -0.09262948826789999 216687104
12.5005863717849 -0.4977295602475508 -0.0947602600310888 212419120
11.32993999048146 -2.613490645402124 0.0210118654990298 221824160
8.57251629188805 -0.8729471757453553 -0.1550463272673976 219718752
11.91455299947069 -0.8692748768113282 -0.1025912306429857 214443056
12.50846404704375 -2.985822606786251 -0.01508289721972027 211440032
9.563756356937374 -0.7827742185818576 -0.1093468884632184 221856720
9.274243151575272 -0.6163703701397811 -0.1014334271170223 156381424
12.90442030235557 -0.7806804332990548 -0.08718207636701322 220799952
10.28682733343127 -2.020110507789063 -0.08927124509650858 246031760
9.468661491815411 1.005545127216506 -0.02004548012113885 184951344
12.61575411987991 -0.6083263676192008 -0.09394842182928385 147943568
9.923585316189861 0.5803431114546598 -0.03338020679237408 158548192
13.31306855008601 -0.7276292876498764 -0.05812799742838726 155365568
9.527081025942463 -2.157423946568072 -0.1092562180638931 227079392
9.478486770941638 0.388091399666579 0.002023378439568813 195527216
12.61597565843327 -2.869498599035939 -0.0176133063471834 154276048
11.32435758280664 -0.870334048604067 -0.1074398418655869 224994512
11.62304092507036 -2.702525898294057 0.03259775197419272 200786752
13.67276304002159 -1.10561218830508 -0.06891262430166752 202875840
10.74228991528648 0.3578703308823775 -0.1011057526673732 213471824
12.50845235550645 -2.986556068180242 -0.0144640308491535 215650768
9.973805817820022 -0.7312599373972771 -0.09205434067343082 159584512
9.570693809394044 -1.112434449025924 -0.1471556823874695 234509792
13.31359917792537 -2.752719885668422 -0.07276617947545753 154300592
11.96618187190696 -2.226788113868041 -0.005944058276418239 288517344
12.91301591587379 -2.373113281629593 -0.04185252178476535 227120496
10.37240103740131 -1.330099626521514 -0.1237215554854402 222852288
11.91833407032845 -2.613187303922574 0.02659154834951047 219714640
9.572177011098132 -2.371324419760595 -0.09830562645794297 250332928
10.3394738077927 -2.701275145495977 -0.02338662553845921 232395920
10.33579856946942 -2.368295448442812 -0.05137770448678788 239777376
13.68185077525871 -2.701516251027162 -0.08408966919989931 217629600
10.32904778849798 -1.114996547401558 -0.1227657086316415 246109888
13.67491309724254 -1.111806835362108 -0.07230955245977834 237663792
12.92941763660042 -2.856992716410389 -0.04676373298963724 197653280
12.91037925463703 -1.113086941054223 -0.08639063549392174 230286752
13.31527481509475 -2.751967916357838 -0.07458860844655123 157466864
11.27110414193863 -1.256633409418739 -0.1040777070734881 237425664
10.74097344635916 -0.5004392966775045 -0.09382642767454707 215609888
10.63303235870422 -2.877718224304951 0.0148912569856393 142671952
11.275748555592 -2.225907113611868 -0.01594400734219658 280112256
10.5229512654516 -2.461293794963341 -0.03164663220405521 196539120
13.29639643540598 -2.851070580964711 -0.07632564873396469 207102832
9.571404119497299 -2.372234275767922 -0.09563460267242831 240838224
13.29298099729722 -3.971613190772063 -0.06199845801734872 212382672
10.74047602989666 -2.987391923058473 0.02794253272544675 218808848
14.09495753889799 -2.984032215016161 -0.08466693499142426 192328160
12.90828783823449 -0.7826053925337347 -0.0866742583637642 220779440
9.954957296764091 -2.700192104863269 -0.04763732615416 206050064
13.31858974944005 -4.069371881417824 -0.06289888394526344 152195232
13.67940102800866 -2.701126601042851 -0.08522779499952196 219722672
10.31384107880309 -2.862075498939515 -0.01182710210868496 200803200
13.66072649619493 -3.968369832140341 -0.07520946906846485 198706000
13.27232976638137 -2.757742240302224 -0.07330585161024136 153239712
10.62727812209883 -0.6110534219970277 -0.08909969531618314 153227488
13.6738922404071 -1.10964665768581 -0.07131713672823461 230278560
9.615768028350358 -2.020300781697007 -0.1138668362017988 247084432
10.41917148919542 -0.5339089110037945 -0.06687986879142417 189170176
9.557839615541123 -2.701935034289568 -0.08236710006400658 232391824
12.61049882102647 -0.6189808743969692 -0.07944986408724705 145842304
13.29315727117597 -3.974167415760415 -0.06399796801585976 210273200
14.08523371264549 -3.841725048496961 -0.05104081927862748 207139312
11.33009748442825 -2.61271076494867 0.02300823563428624 224986272
9.949574227583167 -2.856066145839115 -0.03912946968987811 203952928
12.91061993658456 -1.114889993558219 -0.08625107902667102 236615216
10.74020125401294 -2.985663564853061 0.03020518005280026 218829280
14.08894536424831 -2.983137802887418 -0.08656571333438594 210313760
9.940594564561682 -2.75597477195071 -0.03938399692808301 153235616
12.50906245001736 -3.83872723850235 -0.005891487161170871 214602176
13.97018479511192 -2.874072963141368 -0.07823003716044317 143728736
10.62986468774362 -2.87186524792124 0.01463590049407984 157438176
10.34137327366693 -2.711340178662398 -0.0205318085975949 199660192
10.33509049361596 -2.367203839266949 -0.05256774505683597 240830080
14.67032012978185 -2.613028532533657 -0.06349964627847011 206001104
13.97768950898787 -3.957539596352037 -0.06568665076069329 147947664
13.67789710682997 -4.124488096229356 -0.06602668403215385 217613216
12.90770345389318 -2.701862349298237 -0.04548899257998532 216576896
10.313657969238 -2.860565294607837 -0.01393918765786081 202933120
11.91100591851892 -2.619129907794061 0.02375197122726064 198607712
12.90613400370355 -0.8007487879813748 -0.06440199176857359 222880720
11.3204979055152 -0.8603526380792039 -0.1122535845722493 199697280
12.87297948084658 -2.152335735514558 -0.04209438762356054 218629280
10.51639143419845 -2.459796675539697 -0.03671658683341191 195510992
10.731096889423 -2.988921567350337 0.02292749593574036 217792960
11.33245420418774 -2.615215670907096 0.01977252659200851 213382192
10.63261025335327 -2.873662529295568 0.01222138807612373 147955888
11.62376094129857 -2.703813646788538 0.03202885399552587 199734064
13.71586939924828 -1.329402990114735 -0.07345382586222113 219690128
11.96825913308465 -1.252521857671631 -0.09590626287847422 235312112
15.31314916410075 -2.223851996061302 -0.04874191360378218 266892768
13.67538088629447 -2.369922192359557 -0.08121266645623437 232388048
10.59302951650858 -2.503231261201539 -0.02253284325081096 145842272
13.65975254962874 -2.858708235122691 -0.0876274360991907 196584240
13.31710080410176 -4.069903301390768 -0.06784152323480827 152187024
14.67863783510288 -4.214259154003148 -0.02483527250195863 210215888
12.92989554683819 -3.968112583131402 -0.03772774910096609 196592416
12.93262024801462 -2.858159344518093 -0.04859822935840673 194446064
15.25857893571412 -2.610832648213796 -0.03386439520083479 193340064
11.91227156028153 -0.8623966248667531 -0.1045053716871473 190190336
14.61421226892544 -2.226048130227638 -0.07236788078382844 227951520
13.67291630101087 -1.117046534526343 -0.0624536293546329 226063696
12.72017042645316 -1.023707661232153 -0.08775969337101447 192295584
12.61310291950806 -3.9587644167998 -0.02146262185138058 143724640
12.91176337140297 -1.115520925983401 -0.08633390731699461 243988160
11.61431050737661 -1.592361866871918 -0.07573750986762394 165953696
11.1067480504276 -2.222284824798157 -0.0268338585441171 161632528
12.49624198062343 -2.987592779336688 -0.01875513141226029 201822800
13.68327819728265 -4.122709169194389 -0.06830688627443984 211301168
13.62907286517901 -2.020964582245476 -0.08038654441426366 240760128
12.46064500769026 -3.900444055980353 -0.008149788413013956 198607216
11.96268110764466 -2.223162348802925 -0.009712080540455454 311708896
11.3006883386342 -2.6123371517247 -0.007515446873423227 219714624
15.26452114078374 -4.216960049402754 0.008323493147699475 211268640
13.27219576291514 -2.76049254610774 -0.07059228498142978 155357360
13.68033040357163 -2.365844274761262 -0.07985661612663512 215536832
11.24691411865521 -3.636374466115282 0.0795266821860256 152162560
11.32969291265537 -2.450445136392501 0.002521904638590299 166920432
15.85657691335292 -2.982125067587224 0.01058308188289247 207147504
14.67188489325547 -2.611287962201414 -0.06437512371089639 211280928
11.6251131280687 -2.706032524031955 0.03160232006908185 195515104
11.96897287162454 -1.254126147101172 -0.09607576732244541 232154048
13.66069102101629 -3.969644593753622 -0.07462465689018383 197649200
13.65814703787794 -2.858931418529477 -0.08633030400769438 194470640
12.72346914160482 -1.030579648182586 -0.08121330749328104 191255200
15.3094088008259 -2.227144467776297 -0.0453610164828762 254244160
12.95935006479547 -2.019399741862518 -0.04399249077038706 239707424
15.84315126449733 -3.840197853267883 0.05110587737217311 201830928
12.91219857568165 -1.121542178650563 -0.07934423708553674 236611136
12.90613843109254 -4.127652304143956 -0.03073259863224214 222909440
12.96121786791281 -1.464980623384562 -0.05823590031867255 238667040
13.97283622510628 -3.957701654409178 -0.0694095551633527 147947664
13.62794084448308 -1.466316980093322 -0.07183219834823207 236553472
16.279253872583 -2.855692115221741 -0.02624121784265237 196592448
16.2548743877326 -4.124545031207516 0.05060185346097638 221832192
12.0465236222154 -3.999028306512134 0.03601614714002151 207012848
12.46042797007833 -3.903775022775113 -0.009644940263380414 202875216
16.61950713689913 -2.750398265130108 -0.05878666512294178 154288320
13.68492098014116 -4.124993187870621 -0.06830030913052641 216581024
13.71655185297631 -1.334805530376766 -0.0623486433146675 216519760
15.97254196584118 -3.957182493270976 0.04229887041014892 154271936
12.50793536334552 -3.842165494512765 -0.002274518082943767 206062112
12.5010136015959 -2.986852930473459 -0.01510838357984608 213471808
12.91237664197865 -4.126599604341646 -0.02933572833159566 217613184
16.66654511855781 -4.068556361402871 0.01313456159221768 150069376
12.65012224054914 -2.503398939991377 -0.02231715923322584 150077584
14.67168738469424 -4.212479968571213 -0.02724759383668704 204964832
12.72423420400599 -2.459857618013087 -0.02572863208286901 192324272
12.91422232628093 -2.367925391937278 -0.03756499828413856 239769216
16.27509501434908 -3.966983556338003 0.04189090506138736 195543840
12.96191289072451 -2.018060531755331 -0.04138378615097162 234460416
16.62111371410908 -4.070433139139766 0.01783159507996539 153239728
15.95683753846841 -2.869361756570587 0.01761271516530801 147951760
16.98165460987294 -1.452882134028812 0.01480752450667259 235484416
16.66394241008647 -2.753761537597266 -0.06236477665955063 153239712
15.84836796442284 -2.980904735446582 0.01422697436360963 200778224
14.67331415748187 -4.212882140121326 -0.02748295985406191 211276832
17.43269739737814 -2.982173523269136 -0.1253320275638709 206107056
13.97651984407253 -2.873875353596038 -0.07747837013197217 143732832
15.26048025923514 -2.61554615030949 -0.02639210021281176 211268624
14.67279473420696 -2.608198873573753 -0.06547291175292012 215487536
16.21805436962386 -1.321168828423725 -0.03818550623918475 215458912
16.26503799927419 -4.132522444092191 0.03722545187930763 217613232
14.62325878422582 -2.220953552210048 -0.07209630388767491 296946912
15.3098939608614 -2.220401421814023 -0.04374242035152193 294841664
15.30925421846298 -1.24953842141582 -0.05984815398832802 253195552
16.25352056223655 -2.699411277789461 -0.02669067861818382 208134944
15.84227124012521 -3.836493779501883 0.05177928243298851 191263232
17.41648578574257 -3.829270019908333 -0.06326970184693509 206139808
15.2630161995981 -4.22140508470808 0.004458864192057497 205996928
13.62605172873958 -2.019521579249034 -0.07829866630007393 231294128
13.67677384528839 -2.36860180127167 -0.07998083893136809 231335344
13.67952972017521 -2.703980662562134 -0.08370007607250329 209183504
13.71547537275008 -2.155219877186058 -0.08167799297290228 221795456
17.3181720513296 -3.948116008096549 -0.05310076166750455 149000336
14.62468477515358 -1.262428863060689 -0.05954903354972291 278031136
16.9702655715666 -1.461220535557628 0.02808350272732405 234419440
16.61457565863105 -2.751542864945104 -0.05358015147364303 152191136
16.21455149992253 -1.32247658633339 -0.03249953815648274 216507440
17.31118880442902 -2.867315561024718 -0.1074022827769684 144785520
13.67900502788933 -4.462699204606877 -0.05794990664511689 221857040
13.86963411829085 -4.368203909513343 -0.05517897117983791 190210704
17.42751180247918 -2.980661793880668 -0.1240064916166468 200860016
17.02130219395529 -2.694312943522978 -0.09496661450981556 209154864
17.06496429327087 -2.150802999875562 -0.07752015807920848 214406144
17.27324618098454 -0.9809986658140335 0.07516900098467219 150073456
17.42964405559467 -3.83615243926257 -0.07502289974942204 206131616
16.27598320196941 -2.853017434839983 -0.0218042510061108 192361184
16.25751786581434 -2.695531491824966 -0.02670260228643458 210215728
16.2562349024217 -1.106188400076834 -0.02629810956707999 218678496
17.97585514501564 -2.657068624915307 -0.0467568071374603 146894992
17.00363050105708 -2.8527176532738 -0.08649880757029305 190235296
15.85006805140374 -3.837945302005275 0.04777450570010269 208204288
15.961347436989 -2.870313410876113 0.01227307322702036 144785520
16.28215754895028 -3.966759428271955 0.03554460598433146 191271664
15.96430969256545 -3.956453683479799 0.04247729667012781 150057120
16.97219797210862 -1.462217683742561 0.0273061464522347 233366736
17.01495337480365 -2.363808335037489 -0.1045456077073883 230274480
16.25469586562446 -2.36379827399779 -0.03775949691094731 219739424
17.20632052777889 -1.022023010534548 0.06566260971159928 186016336
14.66903081565063 -4.218703774576407 -0.03373161636183824 207053808
17.0226348035492 -0.779031931301986 0.01581980292899692 214455168
14.45327386013806 -2.218388038706379 -0.08009442377890801 160575760
16.30698366518289 -1.458621828829152 -0.04621102620889819 217592816
17.96312408479173 -1.255171979777496 0.1613751108244108 269569216
17.31768377891322 -0.6002364006526829 0.02058721814754742 142667856
14.62152747641188 -2.219727673879107 -0.07260010411133593 299052416
17.98762030581486 -0.8103485033023544 0.1192603986755816 149024928
18.02059889742972 -2.606062152100743 -0.0470183564304338 199652208
16.30781080855156 -2.011247373797897 -0.06157341994277506 214443008
14.96979104901122 -2.700532133334274 -0.04278069270317534 191288000
15.85278069646488 -2.982915820504488 0.01675400944249327 210375072
16.06924288423928 -1.0204462068257 -0.05366224851194923 189178448
16.61343444616459 -0.7257611074040561 -0.03515466934995471 156414160
17.42027585973561 -0.4958682890144431 0.02435723665267788 206152080
16.25328391409942 -0.7782911165378243 -0.05826245186951082 210228032
18.65890933529337 -2.21719762839449 0.07618573786127249 252159328
15.63739903970841 -4.018650286292154 0.03146508665996013 170123920
16.63813198625601 -2.843953291147972 -0.05665121470818055 210256848
14.9722162273175 -4.122337710677765 -0.003949174620307385 199721856
15.84879073285387 -3.837063453226736 0.04767345598517386 206066208
15.26557126190241 -4.208469599543458 0.0113517351096021 214438976
15.96156961177155 -3.952317217532947 0.04664606562888147 147951776
18.65742827078686 -1.251035595803845 0.1495403706445989 250053904
18.59937544608039 -2.608350867469278 0.01561470630203575 192279328
16.61672744298751 -2.750582775810116 -0.05674716761841977 151126160
17.0196533016955 -1.112699676046032 0.05737533049861309 232379920
18.59999178421247 -0.8647361464657982 0.1903471607600563 198607616
14.62039235261811 -2.225590572641875 -0.07254213278092257 244786320
17.31814869468235 -2.861797805741697 -0.11287715281167 152166592
14.62785818313112 -1.270523346087587 -0.06359074351200676 229016464
16.2721663538802 -0.6194101172414801 -0.05752798587604847 194466592
15.84904419157487 -2.984103099958076 0.01567164854173687 211403216
17.42996439180406 -0.4963519165382528 0.02633714536290912 200770064
15.26052326482672 -2.613131495922412 -0.03056911831466512 199664496
15.9627384352554 -2.869075792884421 0.010192887946706 144781424
15.83984057170006 -3.848864286123597 0.03427533903785453 202879552
16.25554468554385 -0.779641314498722 -0.05853185663875275 209154848
18.65141186194196 -1.257221110182562 0.1577391311595055 262686176
18.59490075788595 -0.865278724876012 0.1967461257721469 194368272
16.99764262876199 -0.623311728156142 -0.003734819933172774 189145712
14.97371899377545 -1.881639165246386 -0.06143134962173756 179679504
16.63918698291268 -0.6314722967117915 -0.0429170506358213 207086496
18.01285075252236 -0.8602027970624917 0.1296695893967836 200733600
17.02524507283636 -0.7763817497408092 0.01684745118717712 209191744
17.96230979195002 -1.251517240924922 0.1660496227897528 245830880
18.65490183724701 -2.215994888631194 0.08183787643039618 257422768
19.19031812543375 -0.4870913110674077 0.1644004095435285 202875360
18.60306150401696 -2.607417723777669 0.01735068772512559 200729488
19.30258775625092 -0.6089807021760518 0.1275737328476318 159551728
17.0570390706143 -1.327093614036436 0.05317181928810579 195416928
15.0451215293598 -1.592700532057098 -0.004523328587828301 161714320
19.18737240001445 0.3653993973873614 0.09780733831836366 205042128
15.95782766952149 -0.6072092393883219 -0.04510951108260987 145842304
16.24972753264526 -2.700778345499291 -0.02797178010043351 209187616
19.29747757370043 0.4709781104416264 0.09939513642882521 145830016
16.27569728013097 -2.854547014144957 -0.02370929767185222 190231200
18.30709696532871 -0.7769092037325858 0.152742677512596 193389328
17.31616420451188 -2.866299507723972 -0.1134453035341087 147943568
18.59783627182148 0.722372972968118 -0.00174154828398513 182809232
17.31123682018194 -0.6060803046862578 0.02515490982312638 154280144
16.25885472500276 -1.109001453469676 -0.02525611003057139 231343568
19.59095460702694 0.6489179995782625 0.1072706750950017 209150768
16.61376495823606 -0.7211733516976926 -0.03453940435091661 156418240
17.01297401242959 -1.108853953023438 0.05793842094306444 228185488
15.63279633923082 -0.6745380041803419 -0.03656325284003592 180663104
19.61317195156429 0.48874201412943 0.1300730526287472 187044480
17.96406903214115 -2.219557897093298 0.01221792491159629 254256464
18.02090541302329 -2.607845579528522 -0.04464182061480124 189096624
16.26853131639706 -0.6210635920087929 -0.05757860179038952 197665648
19.95202532646021 -0.7211335596412488 -0.005848042681713671 152187040
15.83934162615497 -0.4973280785867801 -0.04077821145780217 199725552
17.43110986992567 0.3630294738815602 -0.08313109223329211 193380800
16.92417862121069 -1.175637718831426 0.05384850193082746 212309184
18.00712706318999 0.7327199208190436 -0.06849655449264173 214434864
20.77194066143195 -0.489549291960097 -0.114682702135768 190206384
19.61264565266218 0.4915220701249435 0.1281868905157458 186008160
18.59616955345259 0.7256118097133692 -0.003157986215474744 179630688
19.59187643736243 0.6460695848497788 0.1077108786446882 205996800
16.34066887187465 -1.173634670693865 -0.01413892587414771 218592480
19.9766316146426 -0.6257090899553203 0.005262680878670514 198644512
18.65153781143264 -1.253914405106042 0.155131185614318 258471328
18.30841815248973 -1.592193426656413 0.147060458221784 162783376
19.18286958151734 0.3649096741066585 0.09990443200959213 200790480
18.60115276284079 -0.8647158534391741 0.1968001708639547 212329520
18.01287757747438 -0.8671818057222307 0.1323486758299596 209159104
17.02366751785265 -0.7822472950108791 0.01629308731046399 217609184
19.18089171806474 -0.4936806213312621 0.164714450393755 189153744
19.9971987577517 0.5921144272008581 0.1599958008699622 154300624
19.95123205814727 -0.7173109900844838 -0.00388095060393234 152191136
17.00887049378657 -0.6242693706708168 -0.001544415435594491 194503456
21.35309754339451 -0.8550499160953267 -0.162748221751175 185950912
