# .PCD v.7 - Point Cloud Data file format
VERSION .7
FIELDS x y z
SIZE 4 4 4
TYPE F F F
COUNT 1 1 1
WIDTH 152
HEIGHT 1
VIEWPOINT 0 0 0 1 0 0 0
POINTS 152
DATA ascii
1.70965821e-01 -5.39015472e-01 6.19521260e-01
1.70965821e-01 -3.36461842e-01 6.19521260e-01
3.08497846e-01 -3.36461842e-01 4.70817149e-01
3.08497846e-01 -5.39015472e-01 4.70817149e-01
3.19669962e-01 -5.39015472e-01 7.57053316e-01
4.57201988e-01 -3.36461842e-01 6.08349204e-01
4.57201988e-01 -5.39015472e-01 6.08349204e-01
6.59693480e-01 7.71329343e-01 7.33321726e-01
6.59693480e-01 -3.36191297e-01 7.33321786e-01
6.89736962e-01 7.71329284e-01 6.21197820e-01
6.89736962e-01 -3.36191297e-01 6.21197879e-01
6.59693480e-01 7.71329284e-01 5.09073913e-01
6.59693480e-01 -3.36191297e-01 5.09073973e-01
5.77613115e-01 7.71329284e-01 4.26993549e-01
5.77613115e-01 -3.36191297e-01 4.26993608e-01
4.65489209e-01 7.71329284e-01 3.96950036e-01
4.65489209e-01 -3.36191326e-01 3.96950096e-01
3.53365302e-01 7.71329284e-01 4.26993519e-01
3.53365302e-01 -3.36191297e-01 4.26993579e-01
2.71284938e-01 7.71329284e-01 5.09073913e-01
2.71284938e-01 -3.36191297e-01 5.09073913e-01
2.41241366e-01 7.71329284e-01 6.21197760e-01
2.41241366e-01 -3.36191297e-01 6.21197820e-01
2.14348927e-01 4.53043789e-01 -7.02613443e-02
-4.13499251e-02 3.98368895e-01 -1.69706091e-01
-3.37794945e-02 3.76912057e-01 -1.51572257e-01
-6.59368932e-03 3.69220227e-01 -1.39837831e-01
1.61541358e-01 4.11147505e-01 -8.56109336e-02
1.64861143e-01 4.53199357e-01 -1.17267184e-01
1.87247172e-01 4.36707973e-01 -9.48038548e-02
1.86799794e-01 4.69889432e-01 -1.11896776e-01
-3.04597039e-02 4.18963939e-01 -1.83228493e-01
7.93596581e-02 3.87063473e-01 -8.03793594e-02
8.99923369e-02 3.92253548e-01 -1.10572323e-01
9.78108197e-02 5.56037605e-01 -2.20724478e-01
1.51338428e-02 5.49965084e-01 -1.72517270e-01
-8.67088512e-03 6.00888550e-01 -2.29615360e-01
-1.43871736e-02 6.58983052e-01 -2.79110789e-01
1.77448750e-01 7.52468467e-01 -2.30313972e-01
2.33895093e-01 5.67107201e-01 -5.42197116e-02
2.55291551e-01 4.34687167e-01 2.80752108e-02
-1.35530811e-02 2.93208122e-01 -5.43493368e-02
1.40059426e-01 4.77334201e-01 -1.18369639e-01
1.83017805e-01 5.12023687e-01 -1.05985887e-01
-1.81878693e-02 4.69000816e-01 -1.84237480e-01
2.09914431e-01 5.13013303e-01 -7.89291635e-02
-9.48643684e-02 4.23601687e-01 -1.68540895e-01
2.42649436e-01 4.70605969e-01 -1.72222964e-02
-1.01076901e-01 3.97108585e-01 -1.50902122e-01
-9.02029648e-02 3.78447264e-01 -1.36348814e-01
1.47544384e-01 3.89644057e-01 -5.06995879e-02
1.29001006e-01 6.63413227e-01 -2.69649446e-01
7.03160241e-02 6.50864840e-01 -2.92472839e-01
1.14862122e-01 7.05666125e-01 -2.95229018e-01
1.15693636e-01 5.60200632e-01 -1.98038027e-01
2.38079473e-01 5.29868126e-01 -5.74059635e-02
2.62248993e-01 4.32776451e-01 -8.11557472e-03
-1.06628045e-01 3.53901178e-01 -1.51576847e-01
1.43253744e-01 3.36504638e-01 -4.91547473e-02
1.18552342e-01 3.75868171e-01 -9.11409780e-02
1.48438960e-01 6.09175265e-01 -2.05951512e-01
2.20042188e-02 6.77454174e-01 -3.11881453e-01
4.75958437e-02 7.14114308e-01 -3.13982159e-01
4.16053794e-02 4.43991512e-01 -1.50065109e-01
1.30519539e-01 6.56547964e-01 -2.63328880e-01
7.17940778e-02 5.39689660e-01 -2.22247779e-01
1.23689190e-01 5.18431544e-01 -1.76280186e-01
1.20227486e-01 5.40136099e-01 -2.05114856e-01
4.40833271e-02 5.40126920e-01 -2.09291995e-01
1.37601644e-01 5.76300800e-01 -1.85813904e-01
1.32739589e-01 5.90997815e-01 -1.36238426e-01
1.09462738e-01 7.02422440e-01 -2.92463601e-01
3.77858132e-02 4.35062379e-01 -1.54686570e-01
1.96790919e-01 4.13339853e-01 -4.84400205e-02
-2.95654573e-02 3.64939123e-01 -1.36473075e-01
-7.56147876e-02 3.80935729e-01 -1.42974019e-01
2.32717171e-01 4.62750554e-01 -3.25191841e-02
-8.16666633e-02 3.95527333e-01 -1.54787317e-01
-7.87576512e-02 4.19224918e-01 -1.68845564e-01
1.41553774e-01 4.05415356e-01 -7.62203112e-02
2.83755846e-02 3.81215006e-01 -1.20236836e-01
1.74014345e-02 3.53304297e-01 9.74925384e-02
2.30554610e-01 5.96842229e-01 1.18638366e-01
-1.87877491e-01 5.69068432e-01 -9.96659547e-02
1.42299712e-01 7.02818155e-01 7.44291395e-02
-1.93856582e-02 6.97648942e-01 -2.35912040e-01
1.51780501e-01 7.77971387e-01 -2.10588709e-01
2.49112863e-02 7.50504315e-01 -2.75661439e-01
8.31035450e-02 6.88030183e-01 -8.13113600e-02
-8.27872232e-02 3.91055554e-01 -4.62376885e-02
-2.38967717e-01 4.41498160e-01 5.02340607e-02
1.06926732e-01 5.64323902e-01 2.80230552e-01
9.40714553e-02 7.17718005e-01 5.47820032e-02
-2.74005234e-01 5.05125523e-01 2.79349908e-02
-2.19598114e-01 6.21501088e-01 -7.91844204e-02
2.42035046e-01 7.50373960e-01 1.59521803e-01
2.72146791e-01 6.34679198e-01 3.06971043e-01
2.29000047e-01 6.11561716e-01 2.56456226e-01
-3.20123732e-01 4.94145155e-01 4.28945497e-02
-3.92659396e-01 5.39844513e-01 4.30845842e-03
2.75635600e-01 7.31274843e-01 2.25540102e-01
-3.11774343e-01 6.13058209e-01 -5.04031740e-02
-2.36487344e-01 6.03218257e-01 -7.08600953e-02
-3.21943343e-01 6.13942981e-01 -3.11929956e-02
2.64464587e-01 7.32820392e-01 2.34062120e-01
1.69406950e-01 6.79366529e-01 1.53085843e-01
-2.37196147e-01 5.92424452e-01 -5.04760072e-03
-2.58807570e-01 6.05778158e-01 -2.77775191e-02
-2.67207921e-01 5.77067375e-01 9.60727595e-03
2.23988190e-01 6.64217830e-01 2.53293842e-01
-3.81900132e-01 5.44620991e-01 3.85235436e-02
-3.01472276e-01 5.47296047e-01 2.37697773e-02
-2.79547513e-01 5.90314507e-01 -4.65137511e-03
-3.02322030e-01 5.75582385e-01 3.95221822e-03
2.40330711e-01 6.75777197e-01 2.43621230e-01
-3.42327356e-01 5.51190138e-01 1.70176402e-02
8.60396147e-01 2.44566455e-01 9.00000036e-01
-6.27727628e-01 3.07029665e-01 9.00000036e-01
-9.41591501e-01 8.06735396e-01 9.00000036e-01
1.00436425e+00 -4.73760426e-01 9.00000036e-01
-1.00436425e+00 -7.23613322e-01 9.00000036e-01
4.08022970e-01 -6.14611208e-01 9.00000036e-01
-1.73393771e-01 -3.17602456e-01 9.00000036e-01
-9.41591501e-01 -5.98686934e-01 9.00000036e-01
-1.88318297e-01 -8.48539770e-01 9.00000036e-01
-1.56931907e-01 4.63187695e-01 9.00000036e-01
-5.33568501e-01 6.50577247e-01 9.00000036e-01
-6.59114063e-01 4.00724471e-01 9.00000036e-01
-9.72977877e-01 2.75798082e-01 9.00000036e-01
-7.37484455e-01 5.95520437e-01 -6.04347467e-01
-6.78937018e-01 5.95520437e-01 -7.45693505e-01
-5.37590981e-01 5.95520437e-01 -8.04240942e-01
-6.37537718e-01 7.68633246e-01 -6.04347467e-01
-6.08263969e-01 7.17929721e-01 -7.45693505e-01
-4.66917932e-01 7.17929721e-01 -4.63001430e-01
-4.37644213e-01 7.68633246e-01 -6.04347467e-01
-4.66917932e-01 7.17929721e-01 -7.45693505e-01
-3.96244913e-01 5.95520437e-01 -4.63001430e-01
-3.37697506e-01 5.95520437e-01 -6.04347467e-01
-3.96244913e-01 5.95520437e-01 -7.45693505e-01
-4.66917932e-01 4.73111182e-01 -4.63001430e-01
-4.37644243e-01 4.22407627e-01 -6.04347467e-01
-4.66917932e-01 4.73111182e-01 -7.45693505e-01
-6.37537658e-01 4.22407627e-01 -6.04347467e-01
-6.08263969e-01 4.73111182e-01 -7.45693505e-01
9.96673048e-01 9.67145264e-01 7.96673000e-01
9.96673048e-01 9.67145085e-01 -9.96673048e-01
-9.96673167e-01 9.67145085e-01 -9.96672869e-01
9.96673524e-01 7.71472633e-01 7.96672523e-01
9.96672392e-01 7.71472454e-01 -9.96673644e-01
-9.96673405e-01 7.71472454e-01 -9.96672690e-01
-9.96672988e-01 7.71472633e-01 7.96673059e-01
