# .PCD v.7 - Point Cloud Data file format
VERSION .7
FIELDS x y z rgb
SIZE 4 4 4 4
TYPE F F F F
COUNT 1 1 1 1
WIDTH 771
HEIGHT 1
VIEWPOINT 0 0 0 1 0 0 0
POINTS 771
DATA ascii
7.75751531e-01 8.37844372e-01 -1.30288303e+00 -1.73402400e+08
1.08942044e+00 7.09294975e-01 -1.40072966e+00 -1.73402400e+08
6.93473756e-01 1.25558388e+00 -1.59671307e+00 -1.73402400e+08
1.00049305e+00 8.01509738e-01 -1.31939399e+00 -1.73402400e+08
1.02624738e+00 8.62061083e-01 -1.33604360e+00 -1.73402400e+08
1.03097606e+00 8.30280542e-01 -1.33020782e+00 -1.73402400e+08
8.10534418e-01 8.48179460e-01 -1.30886006e+00 -1.73402400e+08
9.99462426e-01 8.25063467e-01 -1.32410836e+00 -1.73402400e+08
9.96861696e-01 8.55574369e-01 -1.33150637e+00 -1.73402400e+08
9.81391668e-01 8.34479094e-01 -1.32429504e+00 -1.73402400e+08
9.96187031e-01 9.00560856e-01 -1.34603071e+00 -1.73402400e+08
6.82731926e-01 9.39407349e-01 -1.24776733e+00 -1.73402400e+08
5.55759966e-01 1.25766516e+00 -1.62077463e+00 -1.73402400e+08
1.04614580e+00 9.20134425e-01 -1.35920310e+00 -1.73402400e+08
7.95011759e-01 7.53861248e-01 -1.28869569e+00 -1.73402400e+08
1.00292563e+00 7.86536276e-01 -1.31602800e+00 -1.73402400e+08
1.02757156e+00 8.14097106e-01 -1.32468748e+00 -1.73402400e+08
1.01931047e+00 7.42843151e-01 -1.31399775e+00 -1.73402400e+08
7.69299865e-01 9.18066025e-01 -1.32907116e+00 -1.73402400e+08
5.90610147e-01 1.25424421e+00 -1.60245740e+00 -1.73402400e+08
7.66701698e-01 8.64135325e-01 -1.31051445e+00 -1.73402400e+08
9.76123571e-01 8.11963499e-01 -1.31704581e+00 -1.73402400e+08
6.92253828e-01 9.19050932e-01 -1.23712826e+00 -1.73402400e+08
8.36284220e-01 7.45656967e-01 -1.29029679e+00 -1.73402400e+08
8.63534868e-01 8.92881155e-01 -1.32744896e+00 -1.73402400e+08
1.02503479e+00 8.76518071e-01 -1.34033918e+00 -1.73402400e+08
6.76408350e-01 1.27317643e+00 -1.61105704e+00 -1.73402400e+08
1.01659930e+00 8.41006160e-01 -1.33144164e+00 -1.73402400e+08
1.01292324e+00 9.14479136e-01 -1.35403156e+00 -1.73402400e+08
6.96999669e-01 8.13300788e-01 -1.21456647e+00 -1.73402400e+08
1.02087975e+00 7.56780207e-01 -1.31198418e+00 -1.73402400e+08
8.35609853e-01 8.32061946e-01 -1.30668032e+00 -1.73402400e+08
7.70682156e-01 7.56740212e-01 -1.28808248e+00 -1.73402400e+08
1.00896084e+00 7.16450751e-01 -1.30045438e+00 -1.73402400e+08
7.80098319e-01 8.89623463e-01 -1.32110322e+00 -1.73402400e+08
9.81477618e-01 7.33444095e-01 -1.29789174e+00 -1.73402400e+08
7.17176318e-01 1.26984322e+00 -1.59374011e+00 -1.73402400e+08
8.76230001e-01 7.35511065e-01 -1.29059565e+00 -1.73402400e+08
5.87087750e-01 1.26895380e+00 -1.86862528e+00 -1.73402400e+08
5.96990705e-01 1.27701116e+00 -1.60326123e+00 -1.73402400e+08
7.16164172e-01 7.79641867e-01 -1.22086871e+00 -1.73402400e+08
1.02771270e+00 9.29932952e-01 -1.36326694e+00 -1.73402400e+08
9.87352014e-01 9.11867619e-01 -1.35058010e+00 -1.73402400e+08
7.51650333e-01 9.45611119e-01 -1.34209228e+00 -1.73402400e+08
9.32596207e-01 8.22266579e-01 -1.31620657e+00 -1.73402400e+08
8.91574383e-01 7.72635877e-01 -1.29806209e+00 -1.73402400e+08
9.87177610e-01 7.46734142e-01 -1.30511653e+00 -1.73402400e+08
4.67054784e-01 1.13433266e+00 -1.65266132e+00 -1.73402400e+08
8.36478233e-01 9.22732711e-01 -1.33685970e+00 -1.73402400e+08
3.73324484e-01 1.08758843e+00 -1.28749609e+00 -1.73402400e+08
5.47149420e-01 1.27439642e+00 -1.61948788e+00 -1.73402400e+08
6.96905732e-01 1.18299103e+00 -1.58641982e+00 -1.73402400e+08
6.58329427e-01 1.22104073e+00 -1.71083379e+00 -1.73402400e+08
4.24042195e-01 1.19949734e+00 -1.64769089e+00 -1.73402400e+08
6.68541610e-01 1.04148543e+00 -1.33120823e+00 -1.73402400e+08
7.74934769e-01 8.22824240e-01 -1.29986775e+00 -1.73402400e+08
6.94517553e-01 9.70510423e-01 -1.30072856e+00 -1.73402400e+08
6.41270638e-01 9.07805383e-01 -1.76745677e+00 -1.73402400e+08
6.63074791e-01 8.73706698e-01 -1.20291865e+00 -1.73402400e+08
1.02781999e+00 7.93993115e-01 -1.32002330e+00 -1.73402400e+08
4.47820514e-01 1.14270890e+00 -1.68177366e+00 -1.73402400e+08
9.97343361e-01 1.00324440e+00 -1.62971246e+00 -1.73402400e+08
8.00773263e-01 1.30815470e+00 -1.52723753e+00 -1.73402400e+08
1.15584016e+00 1.13928580e+00 -1.61707699e+00 -1.73402400e+08
6.35933101e-01 1.23087323e+00 -1.74138045e+00 -1.73402400e+08
3.53739887e-01 1.29449713e+00 -1.95272553e+00 -1.73402400e+08
5.88579774e-01 1.23600936e+00 -1.60282958e+00 -1.73402400e+08
6.05516136e-01 1.12143826e+00 -1.59450936e+00 -1.73402400e+08
5.62548518e-01 7.96271920e-01 -1.40807033e+00 -1.73402400e+08
4.08236384e-01 1.00988674e+00 -1.18196905e+00 -1.73402400e+08
6.14807725e-01 1.27208722e+00 -1.59734523e+00 -1.73402400e+08
3.98994088e-01 1.00268245e+00 -1.18004119e+00 -1.73402400e+08
7.79541910e-01 7.26101160e-01 -1.28950512e+00 -1.73402400e+08
3.59761804e-01 1.18973005e+00 -1.61875558e+00 -1.73402400e+08
4.43445206e-01 1.02555740e+00 -1.34981978e+00 -1.73402400e+08
4.16745067e-01 9.40675318e-01 -1.13548779e+00 -1.73402400e+08
5.10980248e-01 1.11649585e+00 -1.58447921e+00 -1.73402400e+08
7.53512144e-01 1.12508428e+00 -1.61288571e+00 -1.73402400e+08
4.64389235e-01 9.96803939e-01 -1.16600239e+00 -1.73402400e+08
7.53315151e-01 1.81875360e+00 -3.64179873e+00 -1.73402400e+08
5.07307112e-01 8.47241938e-01 -1.11824715e+00 -1.73402400e+08
5.99821448e-01 6.79199934e-01 -1.50104773e+00 -1.73402400e+08
4.09418315e-01 9.98181522e-01 -1.17322767e+00 -1.73402400e+08
5.94317853e-01 9.76046562e-01 -1.19740176e+00 -1.73402400e+08
9.82824206e-01 9.86561000e-01 -1.63247228e+00 -1.73402400e+08
7.09243953e-01 1.34041977e+00 -1.67076671e+00 -1.73402400e+08
6.36338413e-01 1.12612927e+00 -1.62152183e+00 -1.73402400e+08
5.88617206e-01 1.12230134e+00 -1.60201001e+00 -1.73402400e+08
4.67386872e-01 9.59346950e-01 -9.19771492e-01 -1.73402400e+08
4.13281381e-01 9.32519853e-01 -1.13200045e+00 -1.73402400e+08
4.71096188e-01 8.60217750e-01 -1.10898364e+00 -1.73402400e+08
5.75319946e-01 9.90482152e-01 -1.20006549e+00 -1.73402400e+08
4.37405646e-01 8.50957215e-01 -1.10193479e+00 -1.73402400e+08
4.80109751e-01 8.70518744e-01 -1.11435699e+00 -1.73402400e+08
6.75463200e-01 9.43170130e-01 -1.25994682e+00 -1.73402400e+08
3.89798969e-01 5.86191714e-01 -2.68064213e+00 -1.73402400e+08
6.85264826e-01 9.15129483e-01 -1.24533272e+00 -1.73402400e+08
8.28509629e-01 1.22842598e+00 -1.58365154e+00 -1.73402400e+08
4.97341424e-01 8.92447054e-01 -1.12271917e+00 -1.73402400e+08
5.67577779e-01 1.18403733e+00 -1.59325540e+00 -1.73402400e+08
6.86944902e-01 1.12046516e+00 -1.59234369e+00 -1.73402400e+08
4.61093783e-01 8.48891139e-01 -1.10361290e+00 -1.73402400e+08
2.16142878e-01 -4.01184559e-01 -3.44201374e+00 -1.73402400e+08
4.11217123e-01 1.16492665e+00 -1.53608060e+00 -1.73402400e+08
5.01063764e-01 9.71200466e-01 -1.15824103e+00 -1.73402400e+08
5.37175238e-01 9.47112024e-01 -1.09526706e+00 -1.73402400e+08
4.15446341e-01 9.93333220e-01 -1.16880608e+00 -1.73402400e+08
4.81113017e-01 8.99944603e-01 -1.14712036e+00 -1.73402400e+08
2.71641076e-01 1.23569024e+00 -1.76890433e+00 -1.73402400e+08
5.80218136e-01 9.01592135e-01 -1.16198850e+00 -1.73402400e+08
4.86012012e-01 8.92877162e-01 -1.12944376e+00 -1.73402400e+08
6.87943518e-01 8.11278582e-01 -1.22218752e+00 -1.73402400e+08
7.09220529e-01 1.00092852e+00 -1.34983706e+00 -1.73402400e+08
3.33366722e-01 1.19976425e+00 -1.65146160e+00 -1.73402400e+08
5.85646510e-01 8.33018601e-01 -1.14614940e+00 -1.73402400e+08
1.44137347e+00 1.02716553e+00 -1.71572340e+00 -1.73402400e+08
6.30566120e-01 1.26223135e+00 -1.58823335e+00 -1.73402400e+08
5.15722036e-01 9.24964607e-01 -1.11932003e+00 -1.73402400e+08
6.49550259e-01 9.23800409e-01 -1.21195900e+00 -1.73402400e+08
3.77651125e-01 1.01887202e+00 -1.19695413e+00 -1.73402400e+08
4.31208670e-01 1.01506758e+00 -1.17869437e+00 -1.73402400e+08
4.85694230e-01 8.49595010e-01 -1.11031866e+00 -1.73402400e+08
1.06475866e+00 1.37904036e+00 -1.54873681e+00 -1.73402400e+08
5.51964819e-01 8.40947151e-01 -1.13146305e+00 -1.73402400e+08
6.82010949e-01 9.85243738e-01 -1.29084933e+00 -1.73402400e+08
8.35124671e-01 1.27016354e+00 -1.59099758e+00 -1.73402400e+08
3.98925781e-01 1.01796412e+00 -1.18727040e+00 -1.73402400e+08
3.56673539e-01 9.40815330e-01 -1.66617513e+00 -1.73402400e+08
1.00124729e+00 1.24616683e+00 -1.60301220e+00 -1.73402400e+08
4.52212393e-01 8.61554623e-01 -1.10650730e+00 -1.73402400e+08
4.76182759e-01 8.51496696e-01 -1.10706294e+00 -1.73402400e+08
4.50524330e-01 9.54251170e-01 -1.14558673e+00 -1.73402400e+08
5.69461226e-01 1.07708216e+00 -1.46100605e+00 -1.73402400e+08
4.57098007e-01 9.63499963e-01 -1.14780259e+00 -1.73402400e+08
4.92740601e-01 1.02005100e+00 -1.18944585e+00 -1.73402400e+08
4.41870868e-01 9.52351928e-01 -1.14056957e+00 -1.73402400e+08
5.42633772e-01 9.92666364e-01 -1.18669307e+00 -1.73402400e+08
1.43161225e+00 9.71448660e-01 -1.71041059e+00 -1.73402400e+08
5.53538144e-01 9.20027375e-01 -1.15700865e+00 -1.73402400e+08
4.20839250e-01 9.32452261e-01 -1.13070583e+00 -1.73402400e+08
1.10493541e+00 1.21169627e+00 -1.57651424e+00 -1.73402400e+08
5.99651635e-01 8.51506948e-01 -1.15502083e+00 -1.73402400e+08
5.80105126e-01 9.75707412e-01 -1.19184029e+00 -1.73402400e+08
5.43020248e-01 7.85625756e-01 -1.33795846e+00 -1.73402400e+08
7.50261366e-01 1.26322281e+00 -1.55063808e+00 -1.73402400e+08
4.24303323e-01 1.02693701e+00 -1.31894290e+00 -1.73402400e+08
4.26542759e-01 8.94762576e-01 -1.11289954e+00 -1.73402400e+08
4.58695650e-01 9.47712004e-01 -9.87681568e-01 -1.73402400e+08
1.17053354e+00 1.38609695e+00 -1.55349660e+00 -1.73402400e+08
3.52994621e-01 2.18550622e-01 -2.46635580e+00 -1.73402400e+08
5.50894618e-01 9.11845744e-01 -1.15369713e+00 -1.73402400e+08
3.83326203e-01 9.57845032e-01 -1.73292661e+00 -1.73402400e+08
5.07788360e-01 9.95507300e-01 -1.17579305e+00 -1.73402400e+08
4.92129266e-01 1.29461837e+00 -2.00905299e+00 -1.73402400e+08
5.46050906e-01 8.49959075e-01 -1.13214278e+00 -1.73402400e+08
8.16459894e-01 1.12718999e+00 -1.61438942e+00 -1.73402400e+08
4.16591495e-01 1.03044116e+00 -1.19564378e+00 -1.73402400e+08
4.42807764e-01 9.85849261e-01 -1.15903652e+00 -1.73402400e+08
4.64232087e-01 9.82596636e-01 -1.15608656e+00 -1.73402400e+08
5.27760863e-01 9.78579819e-01 -1.16972876e+00 -1.73402400e+08
4.05184746e-01 1.03017199e+00 -1.19486034e+00 -1.73402400e+08
5.76058865e-01 1.00095916e+00 -1.20916748e+00 -1.73402400e+08
6.19745970e-01 8.41322124e-01 -1.16460490e+00 -1.73402400e+08
4.19790953e-01 9.45372820e-01 -1.13531804e+00 -1.73402400e+08
5.51252842e-01 8.29240501e-01 -1.13136804e+00 -1.73402400e+08
4.76706713e-01 1.00694084e+00 -1.17482972e+00 -1.73402400e+08
6.08694315e-01 9.29955900e-01 -1.18637121e+00 -1.73402400e+08
6.20836437e-01 9.01827633e-01 -1.18135834e+00 -1.73402400e+08
5.61722457e-01 9.02278125e-01 -1.15259671e+00 -1.73402400e+08
3.91047031e-01 1.03710401e+00 -1.20266652e+00 -1.73402400e+08
4.34728950e-01 9.92493987e-01 -1.16377735e+00 -1.73402400e+08
6.24208450e-01 1.22976255e+00 -1.59289086e+00 -1.73402400e+08
5.69210589e-01 8.64599705e-01 -1.14574170e+00 -1.73402400e+08
4.26411182e-01 9.76911187e-01 -1.15322101e+00 -1.73402400e+08
7.81828582e-01 1.12046254e+00 -1.62484884e+00 -1.73402400e+08
1.14732087e+00 1.18616140e+00 -1.59469092e+00 -1.73402400e+08
4.55340534e-01 8.57109070e-01 -1.10510445e+00 -1.73402400e+08
4.84118581e-01 9.61716950e-01 -1.14917898e+00 -1.73402400e+08
5.49780428e-01 1.03638363e+00 -1.26723087e+00 -1.73402400e+08
5.91360390e-01 1.01456785e+00 -1.23207414e+00 -1.73402400e+08
4.89768088e-01 9.50561464e-01 -9.72933292e-01 -1.73402400e+08
5.81702471e-01 8.62853944e-01 -1.15061688e+00 -1.73402400e+08
9.64080811e-01 1.06774986e+00 -1.62042081e+00 -1.73402400e+08
3.86351526e-01 1.03088033e+00 -1.16912973e+00 -1.73402400e+08
1.16051245e+00 1.05480027e+00 -1.65521204e+00 -1.73402400e+08
4.23486620e-01 9.39988792e-01 -1.13587844e+00 -1.73402400e+08
5.67094147e-01 1.26691723e+00 -1.60076547e+00 -1.73402400e+08
5.06570518e-01 1.19349253e+00 -1.90751243e+00 -1.73402400e+08
9.95186627e-01 1.03039229e+00 -1.63043523e+00 -1.73402400e+08
4.75102216e-01 9.69280779e-01 -1.15046394e+00 -1.73402400e+08
5.13723433e-01 1.01007509e+00 -1.18716311e+00 -1.73402400e+08
5.11312366e-01 9.57324684e-01 -1.15815222e+00 -1.73402400e+08
5.89825749e-01 9.84011114e-01 -1.20222712e+00 -1.73402400e+08
6.00778222e-01 8.41888785e-01 -1.15004313e+00 -1.73402400e+08
4.21520859e-01 1.01415360e+00 -1.18134415e+00 -1.73402400e+08
4.42837715e-01 1.05547440e+00 -1.45283103e+00 -1.73402400e+08
6.19642317e-01 1.01388001e+00 -1.25014818e+00 -1.73402400e+08
6.56204402e-01 8.38237643e-01 -1.18685305e+00 -1.73402400e+08
7.01142073e-01 1.29433775e+00 -1.60469115e+00 -1.73402400e+08
5.90694487e-01 1.03477418e+00 -1.27564955e+00 -1.73402400e+08
6.55205369e-01 8.16929877e-01 -1.18363833e+00 -1.73402400e+08
1.06365263e+00 1.14519274e+00 -1.59006226e+00 -1.73402400e+08
5.43927193e-01 1.00853825e+00 -1.19933712e+00 -1.73402400e+08
9.04352546e-01 7.63414562e-01 -1.29561388e+00 -3.46281697e+10
1.05270076e+00 8.22923064e-01 -1.31801140e+00 -3.46281697e+10
1.02186906e+00 7.78079271e-01 -1.30701375e+00 -3.46281697e+10
1.04131556e+00 8.01153064e-01 -1.31463730e+00 -3.46281697e+10
1.02047455e+00 7.54311681e-01 -1.29007292e+00 -3.46281697e+10
8.61421585e-01 7.51067162e-01 -1.29100084e+00 -3.46281697e+10
7.66752720e-01 8.52286875e-01 -1.30650508e+00 -3.46281697e+10
8.81374776e-01 7.57027805e-01 -1.29345524e+00 -3.46281697e+10
6.88192606e-01 9.24855113e-01 -1.25034428e+00 -3.46281697e+10
9.61904466e-01 7.82779217e-01 -1.30257320e+00 -3.46281697e+10
9.01729345e-01 7.48953223e-01 -1.29284310e+00 -3.46281697e+10
1.05201972e+00 8.69633675e-01 -1.32813787e+00 -3.46281697e+10
6.99838817e-01 8.95676970e-01 -1.23598981e+00 -3.46281697e+10
8.57052028e-01 7.22387612e-01 -1.29335380e+00 -3.46281697e+10
1.00380802e+00 7.40224659e-01 -1.26595664e+00 -3.46281697e+10
9.52950835e-01 7.50367999e-01 -1.29652774e+00 -3.46281697e+10
8.48400950e-01 7.69005060e-01 -1.29049718e+00 -3.46281697e+10
1.04844129e+00 8.54407072e-01 -1.32277858e+00 -3.46281697e+10
1.04520571e+00 8.85262072e-01 -1.33088589e+00 -3.46281697e+10
9.67535257e-01 8.54141235e-01 -1.32095706e+00 -3.46281697e+10
7.66111791e-01 9.30100918e-01 -1.33654785e+00 -3.46281697e+10
7.94254422e-01 7.66281843e-01 -1.29152346e+00 -3.46281697e+10
8.20679307e-01 7.55566597e-01 -1.29278970e+00 -3.46281697e+10
9.55878377e-01 7.21941948e-01 -1.29231930e+00 -3.46281697e+10
9.94609475e-01 7.75352657e-01 -1.30532467e+00 -3.46281697e+10
1.05862844e+00 9.10991430e-01 -1.34715891e+00 -3.46281697e+10
1.02721810e+00 8.56182516e-01 -1.32241774e+00 -3.46281697e+10
1.05159461e+00 8.38401198e-01 -1.32113886e+00 -3.46281697e+10
9.22855973e-01 7.29529798e-01 -1.28749835e+00 -3.46281697e+10
1.04332507e+00 7.69829333e-01 -1.30290329e+00 -3.46281697e+10
9.13792431e-01 7.75547385e-01 -1.29613185e+00 -3.46281697e+10
7.60335863e-01 7.94570565e-01 -1.29624414e+00 -3.46281697e+10
8.46123278e-01 7.55108237e-01 -1.29242790e+00 -3.46281697e+10
1.07216442e+00 9.27061617e-01 -1.35201144e+00 -3.46281697e+10
9.74651217e-01 7.19452918e-01 -1.29114151e+00 -3.46281697e+10
8.05970609e-01 8.20183098e-01 -1.30189550e+00 -3.46281697e+10
9.17606890e-01 7.45572209e-01 -1.28972006e+00 -3.46281697e+10
9.64179814e-01 7.95722961e-01 -1.30566692e+00 -3.46281697e+10
7.62997687e-01 8.89752746e-01 -1.31955361e+00 -3.46281697e+10
8.35051596e-01 7.32031286e-01 -1.28936422e+00 -3.46281697e+10
7.48947620e-01 8.18093300e-01 -1.28852618e+00 -3.46281697e+10
5.81007659e-01 1.51325989e+00 -2.64554167e+00 -3.46281697e+10
1.04786301e+00 7.86303520e-01 -1.30794704e+00 -3.46281697e+10
8.35806131e-01 7.73262501e-01 -1.29343987e+00 -3.46281697e+10
6.52667105e-01 1.15840793e+00 -1.51115513e+00 -3.46281697e+10
1.00744748e+00 7.39920974e-01 -1.29763687e+00 -3.46281697e+10
7.10918486e-01 1.08708453e+00 -1.54984677e+00 -3.46281697e+10
7.77617335e-01 1.23477650e+00 -1.74853098e+00 -3.46281697e+10
7.63306737e-01 7.64939725e-01 -1.29124820e+00 -3.46281697e+10
4.96350586e-01 9.40029621e-01 -1.15247571e+00 -3.46281697e+10
5.06181598e-01 8.85482490e-01 -1.13633645e+00 -3.46281697e+10
5.41949809e-01 8.60375404e-01 -1.14134276e+00 -3.46281697e+10
8.71145070e-01 7.22624540e-01 -1.28968120e+00 -3.46281697e+10
5.04569769e-01 9.27998245e-01 -1.15092194e+00 -3.46281697e+10
5.29179573e-01 8.58378172e-01 -1.13723826e+00 -3.46281697e+10
5.04354775e-01 9.16643798e-01 -1.14583910e+00 -3.46281697e+10
1.05993485e+00 9.38410223e-01 -1.35710323e+00 -3.46281697e+10
4.70898926e-01 9.40750003e-01 -1.14801729e+00 -3.46281697e+10
5.01959741e-01 1.00859988e+00 -1.18931782e+00 -3.46281697e+10
1.21623886e+00 1.27793348e+00 -1.54093730e+00 -3.46281697e+10
5.22653222e-01 1.09898865e+00 -1.49478924e+00 -3.46281697e+10
4.97785151e-01 8.71743500e-01 -1.12853754e+00 -3.46281697e+10
5.11488199e-01 9.05946851e-01 -1.14557457e+00 -3.46281697e+10
5.75519741e-01 8.40788007e-01 -1.15082598e+00 -3.46281697e+10
6.31333649e-01 8.09453428e-01 -1.16645157e+00 -3.46281697e+10
4.54036176e-01 8.87484789e-01 -1.12340260e+00 -3.46281697e+10
4.62663382e-01 8.78531516e-01 -1.12224948e+00 -3.46281697e+10
6.48532987e-01 1.04446626e+00 -1.33214486e+00 -3.46281697e+10
5.25598288e-01 8.81538570e-01 -1.14026034e+00 -3.46281697e+10
5.50423563e-01 1.11767709e+00 -1.58337021e+00 -3.46281697e+10
5.48902750e-01 8.68502140e-01 -1.14393282e+00 -3.46281697e+10
5.62928379e-01 8.92276406e-01 -1.15799928e+00 -3.46281697e+10
7.17105746e-01 1.16373491e+00 -1.52338243e+00 -3.46281697e+10
5.52332520e-01 8.76203716e-01 -1.14964044e+00 -3.46281697e+10
5.08076549e-01 8.57644856e-01 -1.13073254e+00 -3.46281697e+10
5.43685436e-01 8.77188563e-01 -1.14626396e+00 -3.46281697e+10
5.57571232e-01 9.60820496e-01 -1.18033600e+00 -3.46281697e+10
5.01039267e-01 9.46821749e-01 -1.15486765e+00 -3.46281697e+10
4.46222126e-01 9.46671188e-01 -1.15017402e+00 -3.46281697e+10
5.35463989e-01 8.27273309e-01 -1.13961589e+00 -3.46281697e+10
4.45043355e-01 9.70150948e-01 -1.16008985e+00 -3.46281697e+10
5.66565514e-01 8.24006259e-01 -1.14432228e+00 -3.46281697e+10
5.32843649e-01 8.75037432e-01 -1.14204717e+00 -3.46281697e+10
4.38658446e-01 9.44542885e-01 -1.14411759e+00 -3.46281697e+10
4.89554614e-01 8.96227658e-01 -1.13751245e+00 -3.46281697e+10
5.43895543e-01 8.86749089e-01 -1.15001082e+00 -3.46281697e+10
5.63663900e-01 9.10050333e-01 -1.16428328e+00 -3.46281697e+10
6.00433290e-01 8.66136134e-01 -1.16517138e+00 -3.46281697e+10
5.15816391e-01 9.35660481e-01 -1.15636504e+00 -3.46281697e+10
5.24120748e-01 9.11156178e-01 -1.15039027e+00 -3.46281697e+10
4.98082697e-01 9.12127256e-01 -1.14465022e+00 -3.46281697e+10
4.89366412e-01 9.02795672e-01 -1.13989389e+00 -3.46281697e+10
4.64955062e-01 9.03544068e-01 -1.13136220e+00 -3.46281697e+10
4.45810586e-01 9.40990388e-01 -1.14694929e+00 -3.46281697e+10
5.80060482e-01 8.68164420e-01 -1.15865552e+00 -3.46281697e+10
5.36674976e-01 9.55440223e-01 -1.17376149e+00 -3.46281697e+10
4.47984844e-01 9.63423312e-01 -1.15638590e+00 -3.46281697e+10
5.05938649e-01 8.64477694e-01 -1.13270688e+00 -3.46281697e+10
5.31264961e-01 8.89603436e-01 -1.14652538e+00 -3.46281697e+10
5.04953563e-01 8.52458417e-01 -1.12744379e+00 -3.46281697e+10
6.19425952e-01 9.38706875e-01 -1.19728220e+00 -3.46281697e+10
4.76801187e-01 8.75828922e-01 -1.12358522e+00 -3.46281697e+10
4.97285485e-01 8.81659806e-01 -1.13177478e+00 -3.46281697e+10
4.98944670e-01 8.86581421e-01 -1.13548851e+00 -3.46281697e+10
4.86399174e-01 1.01683986e+00 -1.19258058e+00 -3.46281697e+10
6.52332485e-01 1.25774562e+00 -1.61373198e+00 -3.46281697e+10
5.36470771e-01 8.68021309e-01 -1.13917887e+00 -3.46281697e+10
6.83995724e-01 9.55916047e-01 -1.28941393e+00 -3.46281697e+10
5.14669180e-01 8.38630438e-01 -1.12021983e+00 -3.46281697e+10
5.20357847e-01 8.97588730e-01 -1.14394927e+00 -3.46281697e+10
1.20051837e+00 1.06233656e+00 -1.60417533e+00 -3.46281697e+10
4.68794465e-01 8.70171249e-01 -1.12109923e+00 -3.46281697e+10
4.60336149e-01 8.96497428e-01 -1.12678480e+00 -3.46281697e+10
6.28948092e-01 8.72948289e-01 -1.18008113e+00 -3.46281697e+10
4.74962503e-01 9.14270520e-01 -1.13610590e+00 -3.46281697e+10
6.48664653e-01 8.79073083e-01 -1.19669080e+00 -3.46281697e+10
4.94412959e-01 8.92490208e-01 -1.13744199e+00 -3.46281697e+10
7.16014206e-01 1.11897993e+00 -1.61892438e+00 -3.46281697e+10
4.94018555e-01 9.86108005e-01 -1.17142606e+00 -3.46281697e+10
4.62909043e-01 8.49602282e-01 -1.11243200e+00 -3.46281697e+10
5.38694620e-01 9.26277220e-01 -1.16050327e+00 -3.46281697e+10
5.79717100e-01 8.93624544e-01 -1.16429102e+00 -3.46281697e+10
4.66283977e-01 8.96850824e-01 -1.12843287e+00 -3.46281697e+10
1.00967610e+00 7.23726034e-01 -1.27863407e+00 -3.46281697e+10
4.66872573e-01 8.82662058e-01 -1.12246668e+00 -3.46281697e+10
4.70605075e-01 9.01311159e-01 -1.12994516e+00 -3.46281697e+10
5.22521555e-01 8.45034242e-01 -1.13152230e+00 -3.46281697e+10
5.63869238e-01 8.38442087e-01 -1.14620626e+00 -3.46281697e+10
5.41450024e-01 8.33103657e-01 -1.13047326e+00 -3.46281697e+10
4.62636530e-01 9.31300819e-01 -1.14344788e+00 -3.46281697e+10
7.72428930e-01 1.24168575e+00 -1.60159910e+00 -3.46281697e+10
4.96821284e-01 8.43399763e-01 -1.11833096e+00 -3.46281697e+10
4.65871662e-01 9.46611166e-01 -1.14882076e+00 -3.46281697e+10
5.52214384e-01 8.95701110e-01 -1.15681481e+00 -3.46281697e+10
4.70834881e-01 8.50794971e-01 -1.11573112e+00 -3.46281697e+10
5.40452003e-01 9.08345461e-01 -1.15519893e+00 -3.46281697e+10
4.79846209e-01 8.80506933e-01 -1.12815464e+00 -3.46281697e+10
4.55379486e-01 9.35131192e-01 -1.14253283e+00 -3.46281697e+10
4.49298948e-01 9.17102933e-01 -1.13391757e+00 -3.46281697e+10
4.87433702e-01 9.20314014e-01 -1.14383292e+00 -3.46281697e+10
6.94823146e-01 1.23795056e+00 -1.76335418e+00 -3.46281697e+10
5.15676200e-01 8.66526723e-01 -1.13547933e+00 -3.46281697e+10
4.41087484e-01 9.98153448e-01 -1.17586887e+00 -3.46281697e+10
1.19367063e+00 1.33237469e+00 -1.53057277e+00 -3.46281697e+10
5.27514875e-01 9.00940657e-01 -1.14933336e+00 -3.46281697e+10
9.37925458e-01 1.20486569e+00 -1.58041346e+00 -3.46281697e+10
5.86631894e-01 8.36900115e-01 -1.15340579e+00 -3.46281697e+10
8.26613247e-01 1.11068165e+00 -1.58876145e+00 -3.46281697e+10
5.41011512e-01 8.53488922e-01 -1.14055812e+00 -3.46281697e+10
5.33028305e-01 8.45511854e-01 -1.13432300e+00 -3.46281697e+10
5.55990517e-01 8.88924778e-01 -1.15600705e+00 -3.46281697e+10
5.66855133e-01 9.34035301e-01 -1.17457807e+00 -3.46281697e+10
4.90916759e-01 9.30967450e-01 -1.14811230e+00 -3.46281697e+10
5.66477954e-01 8.52782667e-01 -1.14566195e+00 -3.46281697e+10
5.53533137e-01 8.60252678e-01 -1.14592838e+00 -3.46281697e+10
5.24441659e-01 9.42081153e-01 -1.16161549e+00 -3.46281697e+10
4.84766752e-01 9.36038792e-01 -1.14862871e+00 -3.46281697e+10
4.35930431e-01 9.55504119e-01 -1.15276945e+00 -3.46281697e+10
5.16425967e-01 8.92553747e-01 -1.14208901e+00 -3.46281697e+10
4.56196666e-01 8.81072581e-01 -1.12115145e+00 -3.46281697e+10
5.19668221e-01 8.78913462e-01 -1.13793981e+00 -3.46281697e+10
4.99294102e-01 8.50308061e-01 -1.12599981e+00 -3.46281697e+10
4.90820855e-01 8.60643208e-01 -1.12316692e+00 -3.46281697e+10
5.42791426e-01 9.35432851e-01 -1.16499889e+00 -3.46281697e+10
4.78637427e-01 9.32964563e-01 -1.14730883e+00 -3.46281697e+10
4.72861022e-01 9.08623517e-01 -1.13439071e+00 -3.46281697e+10
5.62009990e-01 8.65910530e-01 -1.15093505e+00 -3.46281697e+10
4.76264566e-01 8.95414114e-01 -1.12963402e+00 -3.46281697e+10
4.79794413e-01 8.54496241e-01 -1.11714423e+00 -3.46281697e+10
4.51437443e-01 9.00752723e-01 -1.12639225e+00 -3.46281697e+10
5.32072604e-01 1.04934251e+00 -1.31750500e+00 -3.46281697e+10
6.94017172e-01 1.24072397e+00 -1.62207842e+00 -3.46281697e+10
9.88173366e-01 1.28805685e+00 -1.58120906e+00 -3.46281697e+10
2.45902002e-01 1.05306447e+00 -1.97477078e+00 -3.46281697e+10
6.00786328e-01 9.22725677e-01 -1.18257117e+00 -3.46281697e+10
4.53724295e-01 9.28711772e-01 -1.13816845e+00 -3.46281697e+10
5.64732075e-01 8.31420481e-01 -1.14380682e+00 -3.46281697e+10
5.03741980e-01 9.10356522e-01 -1.14263749e+00 -3.46281697e+10
6.20916367e-01 8.91706944e-01 -1.18363082e+00 -3.46281697e+10
4.67870295e-01 9.53968942e-01 -1.15233016e+00 -3.46281697e+10
5.17181575e-01 8.61229360e-01 -1.13055956e+00 -3.46281697e+10
4.74735677e-01 8.71069312e-01 -1.12223673e+00 -3.46281697e+10
4.59597260e-01 8.67762685e-01 -1.11807239e+00 -3.46281697e+10
4.94120836e-01 9.25468922e-01 -1.14771688e+00 -3.46281697e+10
4.82527018e-01 8.85795832e-01 -1.13273108e+00 -3.46281697e+10
4.33910638e-01 9.69956040e-01 -1.16005337e+00 -3.46281697e+10
4.67904508e-01 8.61294329e-01 -1.11685824e+00 -3.46281697e+10
5.45515239e-01 9.03158724e-01 -1.15370262e+00 -3.46281697e+10
4.97977912e-01 8.65081728e-01 -1.12655091e+00 -3.46281697e+10
5.11577070e-01 9.67738748e-01 -1.16660297e+00 -3.46281697e+10
4.60512400e-01 8.61769021e-01 -1.11519587e+00 -3.46281697e+10
5.23232341e-01 9.23194230e-01 -1.15414500e+00 -3.46281697e+10
4.94446009e-01 9.05723393e-01 -1.13997710e+00 -3.46281697e+10
5.39454162e-01 9.44457591e-01 -1.16637540e+00 -3.46281697e+10
1.09721339e+00 1.11562264e+00 -1.58198178e+00 -3.46281697e+10
8.32159042e-01 1.30657375e+00 -1.58910739e+00 -3.46281697e+10
5.91358423e-01 8.14245462e-01 -1.15687180e+00 -3.46281697e+10
4.89001781e-01 8.83577585e-01 -1.13424110e+00 -3.46281697e+10
4.55161065e-01 9.70093131e-01 -1.15855324e+00 -3.46281697e+10
4.47311074e-01 9.29166138e-01 -1.14048529e+00 -3.46281697e+10
4.52539682e-01 8.99212480e-01 -1.10931957e+00 -3.46281697e+10
6.13104641e-01 8.17345679e-01 -1.15807652e+00 -3.46281697e+10
8.20655704e-01 1.19303322e+00 -1.57035494e+00 -3.46281697e+10
5.37671983e-01 8.93528223e-01 -1.14723706e+00 -3.46281697e+10
4.50322211e-01 9.08356071e-01 -1.12910867e+00 -3.46281697e+10
1.14438069e+00 1.08419275e+00 -1.61269939e+00 -3.46281697e+10
5.21052599e-01 8.85713160e-01 -1.14202440e+00 -3.46281697e+10
9.22740936e-01 1.05165410e+00 -1.59966004e+00 -3.46281697e+10
7.23351836e-01 1.24116099e+00 -1.61817479e+00 -3.44808741e+13
7.15960205e-01 1.25916314e+00 -1.62821901e+00 -3.44808741e+13
5.71318388e-01 1.25030577e+00 -1.63846076e+00 -3.44808741e+13
1.08814240e+00 8.20980012e-01 -1.31330776e+00 -3.44808741e+13
7.58839965e-01 8.36013019e-01 -1.30774820e+00 -3.44808741e+13
8.18159044e-01 7.84455061e-01 -1.29433429e+00 -3.44808741e+13
6.98381782e-01 1.26470804e+00 -1.61836553e+00 -3.44808741e+13
6.94804668e-01 9.05561924e-01 -1.24619770e+00 -3.44808741e+13
1.04790354e+00 8.03193390e-01 -1.30326974e+00 -3.44808741e+13
1.11552846e+00 9.19358194e-01 -1.35592246e+00 -3.44808741e+13
1.08692348e+00 8.83389533e-01 -1.33118296e+00 -3.44808741e+13
8.97964060e-01 7.34453142e-01 -1.28906524e+00 -3.44808741e+13
8.50778699e-01 7.83030450e-01 -1.29418254e+00 -3.44808741e+13
8.09833586e-01 7.35076368e-01 -1.29028022e+00 -3.44808741e+13
7.78284788e-01 7.36507237e-01 -1.29244149e+00 -3.44808741e+13
8.20266128e-01 7.69295752e-01 -1.29338443e+00 -3.44808741e+13
1.09073281e+00 8.36857855e-01 -1.31534219e+00 -3.44808741e+13
1.00562584e+00 7.61736751e-01 -1.29964674e+00 -3.44808741e+13
1.09374690e+00 7.83970118e-01 -1.30708349e+00 -3.44808741e+13
1.09138453e+00 7.98871517e-01 -1.30795550e+00 -3.44808741e+13
8.53668332e-01 7.39064515e-01 -1.29049957e+00 -3.44808741e+13
6.78355575e-01 1.27857780e+00 -1.62254941e+00 -3.44808741e+13
1.08760321e+00 8.98861885e-01 -1.33710098e+00 -3.44808741e+13
9.28418994e-01 7.55372167e-01 -1.29350924e+00 -3.44808741e+13
9.62651849e-01 7.35609770e-01 -1.29173696e+00 -3.44808741e+13
9.77101088e-01 7.54529059e-01 -1.29909182e+00 -3.44808741e+13
9.42516506e-01 7.37988889e-01 -1.29113328e+00 -3.44808741e+13
1.00837290e+00 7.59791374e-01 -1.25094485e+00 -3.44808741e+13
6.95401013e-01 8.34713757e-01 -1.22400749e+00 -3.44808741e+13
1.06971025e+00 8.63007009e-01 -1.31873441e+00 -3.44808741e+13
7.64378250e-01 7.80709147e-01 -1.29534590e+00 -3.44808741e+13
9.35241520e-01 9.26212490e-01 -1.34162891e+00 -3.44808741e+13
1.09874332e+00 8.61697853e-01 -1.32280946e+00 -3.44808741e+13
7.97020674e-01 7.79860377e-01 -1.29381919e+00 -3.44808741e+13
1.10881305e+00 8.75051558e-01 -1.33237469e+00 -3.44808741e+13
7.64348328e-01 7.45202541e-01 -1.29252052e+00 -3.44808741e+13
6.96586192e-01 8.61135960e-01 -1.23090959e+00 -3.44808741e+13
9.42075908e-01 7.65566230e-01 -1.29492772e+00 -3.44808741e+13
1.06747532e+00 8.46733093e-01 -1.31419849e+00 -3.44808741e+13
7.59028077e-01 9.19559062e-01 -1.33823276e+00 -3.44808741e+13
1.00670207e+00 7.15612590e-01 -1.29854524e+00 -3.44808741e+13
1.02037442e+00 7.80357718e-01 -1.25324965e+00 -3.44808741e+13
1.06658149e+00 7.81444967e-01 -1.30202341e+00 -3.44808741e+13
1.11350608e+00 8.92508328e-01 -1.33740318e+00 -3.44808741e+13
8.74564588e-01 7.34935343e-01 -1.28828907e+00 -3.44808741e+13
4.85520780e-01 1.07357872e+00 -1.39384770e+00 -3.44808741e+13
9.72608507e-01 7.71238804e-01 -1.30104411e+00 -3.44808741e+13
1.02154279e+00 7.70010352e-01 -1.26965010e+00 -3.44808741e+13
8.87189388e-01 7.86527574e-01 -1.29757833e+00 -3.44808741e+13
1.06800449e+00 8.29584718e-01 -1.31289279e+00 -3.44808741e+13
7.19892442e-01 1.28954542e+00 -1.60789061e+00 -3.44808741e+13
8.22620213e-01 7.95905173e-01 -1.29658449e+00 -3.44808741e+13
9.46272433e-01 7.76275694e-01 -1.30114818e+00 -3.44808741e+13
7.16768861e-01 1.20107687e+00 -1.64298820e+00 -3.44808741e+13
1.05270886e+00 9.00273919e-01 -1.33241308e+00 -3.44808741e+13
1.00546587e+00 7.50484943e-01 -1.23829401e+00 -3.44808741e+13
6.10499799e-01 1.18667400e+00 -1.60429668e+00 -3.44808741e+13
5.68371356e-01 1.18340623e+00 -1.59666348e+00 -3.44808741e+13
9.82159197e-01 7.34146059e-01 -1.29281211e+00 -3.44808741e+13
7.97799230e-01 7.29670644e-01 -1.29380858e+00 -3.44808741e+13
7.63298988e-01 7.33039856e-01 -1.29091418e+00 -3.44808741e+13
7.50930309e-01 9.29862022e-01 -1.34178555e+00 -3.44808741e+13
8.67699862e-01 7.88648903e-01 -1.29558146e+00 -3.44808741e+13
7.23226070e-01 1.27501237e+00 -1.61432016e+00 -3.44808741e+13
1.02594447e+00 7.50417054e-01 -1.28045857e+00 -3.44808741e+13
1.00323772e+00 7.44663954e-01 -1.24892819e+00 -3.44808741e+13
6.87456727e-01 9.65831161e-01 -1.30429959e+00 -3.44808741e+13
1.13934863e+00 9.34006572e-01 -1.37612283e+00 -3.44808741e+13
6.86851144e-01 8.31222892e-01 -1.22842789e+00 -3.44808741e+13
7.05551326e-01 9.94740844e-01 -1.34447479e+00 -3.44808741e+13
6.91777408e-01 8.91459703e-01 -1.23970580e+00 -3.44808741e+13
4.40934807e-01 1.18615615e+00 -1.61250138e+00 -3.44808741e+13
5.90086341e-01 9.09791648e-01 -1.17701864e+00 -3.44808741e+13
5.81091046e-01 9.54170644e-01 -1.19029605e+00 -3.44808741e+13
5.56686878e-01 1.20142281e+00 -1.65395141e+00 -3.44808741e+13
6.17914140e-01 8.54204595e-01 -1.17062986e+00 -3.44808741e+13
6.94855571e-01 1.12432134e+00 -1.61165988e+00 -3.44808741e+13
5.91731250e-01 1.24374795e+00 -1.62401187e+00 -3.44808741e+13
5.91415524e-01 9.22656655e-01 -1.18114722e+00 -3.44808741e+13
6.37817144e-01 9.32758272e-01 -1.21125078e+00 -3.44808741e+13
5.21173060e-01 9.48486388e-01 -1.16444087e+00 -3.44808741e+13
8.32948387e-01 1.32245898e+00 -1.59133470e+00 -3.44808741e+13
8.26057911e-01 1.15492034e+00 -1.57817745e+00 -3.44808741e+13
5.18924534e-01 9.67189670e-01 -1.17252064e+00 -3.44808741e+13
4.63997781e-01 9.97869432e-01 -1.17588687e+00 -3.44808741e+13
5.98661304e-01 8.41206610e-01 -1.15636158e+00 -3.44808741e+13
4.58915919e-01 1.26761043e+00 -1.86669028e+00 -3.44808741e+13
4.90291268e-01 9.52541232e-01 -1.15606904e+00 -3.44808741e+13
4.92040128e-01 1.03578806e+00 -1.27541053e+00 -3.44808741e+13
4.89378095e-01 1.22418070e+00 -1.72729838e+00 -3.44808741e+13
5.15732527e-01 8.83404672e-01 -1.14036274e+00 -3.44808741e+13
5.56962788e-01 9.00740445e-01 -1.15967929e+00 -3.44808741e+13
6.10413194e-01 9.07880843e-01 -1.18326449e+00 -3.44808741e+13
4.86402750e-01 8.90498161e-01 -1.13764822e+00 -3.44808741e+13
5.18811285e-01 9.84361589e-01 -1.17835701e+00 -3.44808741e+13
5.59547484e-01 9.40982223e-01 -1.17407262e+00 -3.44808741e+13
1.01009524e+00 7.28693426e-01 -1.29186642e+00 -3.44808741e+13
4.81426001e-01 9.77529705e-01 -1.16541898e+00 -3.44808741e+13
5.97392678e-01 1.13299370e+00 -1.65356839e+00 -3.44808741e+13
4.83297408e-01 8.72677624e-01 -1.10584342e+00 -3.44808741e+13
4.87987339e-01 1.00317776e+00 -1.18121850e+00 -3.44808741e+13
5.72385132e-01 8.62232327e-01 -1.15388250e+00 -3.44808741e+13
5.34974277e-01 8.98229122e-01 -1.15023136e+00 -3.44808741e+13
4.90778834e-01 8.53548825e-01 -1.12119114e+00 -3.44808741e+13
6.13644302e-01 9.19555783e-01 -1.19095159e+00 -3.44808741e+13
1.38752151e+00 1.22821712e+00 -1.59568262e+00 -3.44808741e+13
4.83598471e-01 9.48820472e-01 -1.15450895e+00 -3.44808741e+13
6.88210309e-01 9.50626135e-01 -1.26184428e+00 -3.44808741e+13
6.19813323e-01 1.12610555e+00 -1.62229288e+00 -3.44808741e+13
5.02989888e-01 9.01947379e-01 -1.14155936e+00 -3.44808741e+13
4.75792348e-01 9.51517880e-01 -1.15460730e+00 -3.44808741e+13
5.37922740e-01 1.03663135e+00 -1.26844501e+00 -3.44808741e+13
4.70265210e-01 9.60742354e-01 -1.15613341e+00 -3.44808741e+13
5.30602992e-01 9.31942523e-01 -1.15960181e+00 -3.44808741e+13
1.01282394e+00 7.69936919e-01 -1.24375200e+00 -3.44808741e+13
6.92807734e-01 1.01040339e+00 -1.33036411e+00 -3.44808741e+13
5.43771505e-01 9.63484943e-01 -1.18099439e+00 -3.44808741e+13
5.22678673e-01 9.76719677e-01 -1.17979646e+00 -3.44808741e+13
5.86351097e-01 9.67156708e-01 -1.19869149e+00 -3.44808741e+13
4.81559902e-01 7.84176111e-01 -1.22639179e+00 -3.44808741e+13
5.11311889e-01 9.13238108e-01 -1.14758146e+00 -3.44808741e+13
6.45195484e-01 8.90291989e-01 -1.19729793e+00 -3.44808741e+13
5.22298992e-01 8.36055934e-01 -1.12909055e+00 -3.44808741e+13
5.08235157e-01 8.70006323e-01 -1.13207603e+00 -3.44808741e+13
6.56743050e-01 1.21271813e+00 -1.68436170e+00 -3.44808741e+13
8.33433032e-01 1.22104239e+00 -1.59541869e+00 -3.44808741e+13
4.93334591e-01 9.96590972e-01 -1.17944336e+00 -3.44808741e+13
5.45127511e-01 8.48073900e-01 -1.13815904e+00 -3.44808741e+13
4.87357289e-01 8.50332379e-01 -1.12015486e+00 -3.44808741e+13
4.92942840e-01 8.75084996e-01 -1.12851655e+00 -3.44808741e+13
5.30248761e-01 9.79149699e-01 -1.18106174e+00 -3.44808741e+13
6.89634681e-01 8.53431463e-01 -1.23396671e+00 -3.44808741e+13
6.29663765e-01 9.59021986e-01 -1.21822608e+00 -3.44808741e+13
5.01357138e-01 9.70842123e-01 -1.16819632e+00 -3.44808741e+13
6.04015112e-01 8.79667342e-01 -1.17225027e+00 -3.44808741e+13
6.69293046e-01 9.09701228e-01 -1.22645509e+00 -3.44808741e+13
4.98038679e-01 8.99312258e-01 -1.13946605e+00 -3.44808741e+13
4.78131652e-01 9.06565309e-01 -1.13594341e+00 -3.44808741e+13
5.08888900e-01 8.43688488e-01 -1.12664258e+00 -3.44808741e+13
4.74999726e-01 9.66357827e-01 -1.15929723e+00 -3.44808741e+13
4.82146442e-01 9.62560952e-01 -1.15924275e+00 -3.44808741e+13
6.53557479e-01 8.13633621e-01 -1.18382490e+00 -3.44808741e+13
6.60549521e-01 8.83637667e-01 -1.20567179e+00 -3.44808741e+13
5.42704821e-01 9.70757008e-01 -1.18407178e+00 -3.44808741e+13
6.89701080e-01 1.02185071e+00 -1.33455956e+00 -3.44808741e+13
8.50239992e-01 1.07982206e+00 -1.61629176e+00 -3.44808741e+13
6.09162450e-01 8.33779395e-01 -1.15991044e+00 -3.44808741e+13
5.15242338e-01 9.25697327e-01 -1.15291393e+00 -3.44808741e+13
1.26868188e+00 1.33444834e+00 -1.56374514e+00 -3.44808741e+13
5.80327630e-01 8.45414281e-01 -1.15087855e+00 -3.44808741e+13
4.65458035e-01 9.62811410e-01 -1.15508938e+00 -3.44808741e+13
6.08905435e-01 8.43515158e-01 -1.15984118e+00 -3.44808741e+13
4.65103716e-01 1.10413682e+00 -1.52290797e+00 -3.44808741e+13
5.67458093e-01 8.70100677e-01 -1.15218508e+00 -3.44808741e+13
6.45143092e-01 9.50290799e-01 -1.23020780e+00 -3.44808741e+13
5.54120660e-01 8.28661442e-01 -1.13979959e+00 -3.44808741e+13
5.09400427e-01 9.47713614e-01 -1.16030288e+00 -3.44808741e+13
5.29755592e-01 8.66817355e-01 -1.13628447e+00 -3.44808741e+13
5.70296824e-01 1.01339579e+00 -1.22692764e+00 -3.44808741e+13
1.34380805e+00 1.19420266e+00 -1.62347376e+00 -3.44808741e+13
1.01550448e+00 1.19739366e+00 -1.61133611e+00 -3.44808741e+13
1.20331931e+00 9.45696890e-01 -1.43868160e+00 -3.44808741e+13
4.70836937e-01 9.84317005e-01 -1.16823697e+00 -3.44808741e+13
5.76437056e-01 8.28742921e-01 -1.14628267e+00 -3.44808741e+13
5.20260036e-01 9.07488108e-01 -1.14926374e+00 -3.44808741e+13
5.74075401e-01 9.28370357e-01 -1.17446232e+00 -3.44808741e+13
5.53851843e-01 9.77973104e-01 -1.18830776e+00 -3.44808741e+13
5.17719865e-01 1.02278602e+00 -1.21245444e+00 -3.44808741e+13
6.07289135e-01 8.53734374e-01 -1.16145325e+00 -3.44808741e+13
6.71928823e-01 8.89256120e-01 -1.21680188e+00 -3.44808741e+13
6.31136119e-01 8.35816920e-01 -1.17412245e+00 -3.44808741e+13
5.09478152e-01 9.20483112e-01 -1.14810848e+00 -3.44808741e+13
6.32834256e-01 8.26798141e-01 -1.16991484e+00 -3.44808741e+13
5.94368219e-01 8.52246404e-01 -1.15953720e+00 -3.44808741e+13
4.57624227e-01 1.01736939e+00 -1.18873644e+00 -3.44808741e+13
5.93516886e-01 9.02091265e-01 -1.17416441e+00 -3.44808741e+13
6.63258672e-01 1.22998488e+00 -1.60096574e+00 -3.44808741e+13
5.96795440e-01 9.30079460e-01 -1.18484926e+00 -3.44808741e+13
5.35741210e-01 8.39570463e-01 -1.13179600e+00 -3.44808741e+13
5.49024999e-01 8.82033169e-01 -1.14987183e+00 -3.44808741e+13
5.75163066e-01 9.06909227e-01 -1.16919577e+00 -3.44808741e+13
6.01227403e-01 9.54829097e-01 -1.19854879e+00 -3.44808741e+13
6.08258486e-01 9.43196118e-01 -1.19750988e+00 -3.44808741e+13
1.56091678e+00 9.51225400e-01 -1.67432952e+00 -3.44808741e+13
5.65833032e-01 9.55143213e-01 -1.18367195e+00 -3.44808741e+13
1.18483520e+00 1.39654958e+00 -1.56598115e+00 -3.44808741e+13
8.30752373e-01 1.26432872e+00 -1.58435714e+00 -3.44808741e+13
6.37598097e-01 9.21423197e-01 -1.20669615e+00 -3.44808741e+13
5.07275581e-01 1.00430679e+00 -1.18791127e+00 -3.44808741e+13
4.83336598e-01 9.08972859e-01 -1.13849974e+00 -3.44808741e+13
1.09954631e+00 1.39318120e+00 -1.57283115e+00 -3.44808741e+13
5.51402748e-01 9.54255998e-01 -1.17763186e+00 -3.44808741e+13
6.30895972e-01 8.88563335e-01 -1.18644726e+00 -3.44808741e+13
6.98250413e-01 7.72431850e-01 -1.23678315e+00 -3.44808741e+13
1.35967004e+00 1.30389380e+00 -1.62012446e+00 -3.44808741e+13
5.80313981e-01 8.58155191e-01 -1.15547967e+00 -3.44808741e+13
5.14391065e-01 8.44513714e-01 -1.12713528e+00 -3.44808741e+13
4.94546294e-01 9.19636488e-01 -1.14569199e+00 -3.44808741e+13
5.40257096e-01 8.71833146e-01 -1.14416873e+00 -3.44808741e+13
5.10035157e-01 9.81078565e-01 -1.17571330e+00 -3.44808741e+13
4.82930392e-01 9.14435863e-01 -1.14088535e+00 -3.44808741e+13
4.69976515e-01 1.01186645e+00 -1.18649316e+00 -3.44808741e+13
4.93683696e-01 8.68970811e-01 -1.12822115e+00 -3.44808741e+13
5.50186992e-01 8.42421293e-01 -1.13670087e+00 -3.44808741e+13
1.27665544e+00 1.41120398e+00 -1.56369710e+00 -3.44808741e+13
4.84747589e-01 9.00291383e-01 -1.13885021e+00 -3.44808741e+13
7.03944623e-01 1.44690251e+00 -2.41281199e+00 -3.44808741e+13
1.06256580e+00 1.35953760e+00 -1.58453357e+00 -3.44808741e+13
5.72683334e-01 9.79202926e-01 -1.19902503e+00 -3.44808741e+13
4.57990438e-01 9.97028410e-01 -1.16655576e+00 -3.44808741e+13
4.80528951e-01 9.05246079e-01 -1.11014330e+00 -3.44808741e+13
1.12564242e+00 1.18916500e+00 -1.60262895e+00 -3.44808741e+13
7.70634353e-01 1.19253743e+00 -1.60490239e+00 -8.82749997e+12
1.16651928e+00 7.79149652e-01 -1.34279895e+00 -8.82749997e+12
1.16598344e+00 8.16809237e-01 -1.34645653e+00 -8.82749997e+12
1.21629584e+00 8.01153243e-01 -1.36010206e+00 -8.82749997e+12
1.15891635e+00 8.79942954e-01 -1.34852302e+00 -8.82749997e+12
1.15741718e+00 7.58298695e-01 -1.33379889e+00 -8.82749997e+12
8.36863220e-01 7.98076272e-01 -1.29406106e+00 -8.82749997e+12
1.16086197e+00 8.39359343e-01 -1.34545469e+00 -8.82749997e+12
1.02368808e+00 7.79281199e-01 -1.24102008e+00 -8.82749997e+12
8.54468644e-01 7.98865318e-01 -1.29457545e+00 -8.82749997e+12
6.84895694e-01 9.37907696e-01 -1.25419664e+00 -8.82749997e+12
1.17478669e+00 7.96830952e-01 -1.34766698e+00 -8.82749997e+12
1.02522731e+00 7.29021490e-01 -1.28055000e+00 -8.82749997e+12
1.17413676e+00 9.00356054e-01 -1.36004972e+00 -8.82749997e+12
8.60642552e-01 9.20003295e-01 -1.32668531e+00 -8.82749997e+12
1.22910893e+00 7.73134470e-01 -1.36387515e+00 -8.82749997e+12
1.19889867e+00 8.63643289e-01 -1.36357558e+00 -8.82749997e+12
7.57305503e-01 9.07425582e-01 -1.32966232e+00 -8.82749997e+12
7.74382114e-01 7.75891364e-01 -1.28951931e+00 -8.82749997e+12
8.38731647e-01 7.44314194e-01 -1.29207444e+00 -8.82749997e+12
1.18584299e+00 9.18804049e-01 -1.36424875e+00 -8.82749997e+12
1.20945299e+00 7.57215858e-01 -1.35327375e+00 -8.82749997e+12
7.51927912e-01 8.70956779e-01 -1.31177330e+00 -8.82749997e+12
1.20912850e+00 8.38954091e-01 -1.36042738e+00 -8.82749997e+12
1.14085400e+00 9.19044077e-01 -1.35256064e+00 -8.82749997e+12
1.08464038e+00 8.12132061e-01 -1.32291698e+00 -8.82749997e+12
7.55481601e-01 8.56986880e-01 -1.30959833e+00 -8.82749997e+12
7.48934627e-01 8.92179847e-01 -1.32161331e+00 -8.82749997e+12
9.83836591e-01 7.18307137e-01 -1.29783654e+00 -8.82749997e+12
1.01116383e+00 7.71734238e-01 -1.21994817e+00 -8.82749997e+12
6.93378329e-01 9.16213989e-01 -1.24368227e+00 -8.82749997e+12
7.64198422e-01 8.24209750e-01 -1.30260599e+00 -8.82749997e+12
7.49027491e-01 8.05050671e-01 -1.29626966e+00 -8.82749997e+12
1.03311181e+00 7.81944752e-01 -1.22862852e+00 -8.82749997e+12
1.21808481e+00 8.20635378e-01 -1.36332834e+00 -8.82749997e+12
7.52248406e-01 7.62758732e-01 -1.29199195e+00 -8.82749997e+12
6.64241433e-01 1.17768502e+00 -1.57318985e+00 -8.82749997e+12
1.07121658e+00 9.14882064e-01 -1.33898056e+00 -8.82749997e+12
7.39617705e-01 9.38490570e-01 -1.34139228e+00 -8.82749997e+12
1.01376700e+00 7.56401718e-01 -1.23067832e+00 -8.82749997e+12
8.01699519e-01 1.26718163e+00 -1.84397340e+00 -8.82749997e+12
6.46887064e-01 1.04434836e+00 -1.32853317e+00 -8.82749997e+12
1.14098620e+00 1.13815224e+00 -1.59713304e+00 -8.82749997e+12
1.19424772e+00 9.36545432e-01 -1.38818395e+00 -8.82749997e+12
1.20920265e+00 8.81276608e-01 -1.36500144e+00 -8.82749997e+12
9.80774701e-01 9.36453700e-01 -1.33994985e+00 -8.82749997e+12
5.73506653e-01 1.04065251e+00 -1.29068851e+00 -8.82749997e+12
4.88904864e-01 9.58074152e-01 -1.16737807e+00 -8.82749997e+12
8.81780088e-01 1.12240708e+00 -1.61470640e+00 -8.82749997e+12
5.93297720e-01 8.83783221e-01 -1.16577435e+00 -8.82749997e+12
5.34139454e-01 8.59388292e-01 -1.13788211e+00 -8.82749997e+12
4.94800776e-01 1.00639546e+00 -1.18955386e+00 -8.82749997e+12
1.06678367e+00 7.79016495e-01 -1.25908160e+00 -8.82749997e+12
5.73599219e-01 1.07437932e+00 -1.45985615e+00 -8.82749997e+12
5.78364134e-01 9.90979791e-01 -1.20930040e+00 -8.82749997e+12
7.31599331e-01 1.17338157e+00 -1.55580461e+00 -8.82749997e+12
1.18453336e+00 1.26393807e+00 -1.50839508e+00 -8.82749997e+12
1.16289771e+00 1.02369976e+00 -1.64935148e+00 -8.82749997e+12
5.29450655e-01 8.71885300e-01 -1.13951278e+00 -8.82749997e+12
5.11589944e-01 8.93408954e-01 -1.13978589e+00 -8.82749997e+12
5.59405565e-01 9.17364776e-01 -1.16421580e+00 -8.82749997e+12
6.56862140e-01 1.26570523e+00 -1.63674366e+00 -8.82749997e+12
5.53815007e-01 9.09805059e-01 -1.16006851e+00 -8.82749997e+12
5.21652520e-01 8.67499411e-01 -1.13654757e+00 -8.82749997e+12
5.29673696e-01 1.08683228e+00 -1.44954014e+00 -8.82749997e+12
7.44098127e-01 1.27211881e+00 -1.69684386e+00 -2.26936542e+15
7.09426939e-01 7.96256423e-01 -1.24663317e+00 -2.26936542e+15
9.40263689e-01 8.83440614e-01 -1.31717753e+00 -2.26936542e+15
9.02417183e-01 9.21195924e-01 -1.33058357e+00 -2.26936542e+15
1.44958687e+00 8.05347443e-01 -1.48327780e+00 -2.26936542e+15
7.84556806e-01 9.30282712e-01 -1.34177828e+00 -2.26936542e+15
1.19579804e+00 7.64908910e-01 -1.31260121e+00 -2.26936542e+15
9.09742415e-01 8.92443538e-01 -1.31732118e+00 -2.26936542e+15
8.93498003e-01 8.95303905e-01 -1.31844437e+00 -2.26936542e+15
9.70549226e-01 9.07313466e-01 -1.32290053e+00 -2.26936542e+15
1.40774000e+00 7.92562544e-01 -1.45181668e+00 -2.26936542e+15
9.10724044e-01 9.34157252e-01 -1.33200228e+00 -2.26936542e+15
1.25831544e+00 7.75308967e-01 -1.34827805e+00 -2.26936542e+15
1.03307819e+00 8.16807806e-01 -1.31333518e+00 -2.26936542e+15
1.21679521e+00 7.68992424e-01 -1.34004772e+00 -2.26936542e+15
1.01682675e+00 7.81330228e-01 -1.20754361e+00 -2.26936542e+15
8.90992403e-01 9.27078009e-01 -1.33511686e+00 -2.26936542e+15
1.01698411e+00 9.26493943e-01 -1.33733690e+00 -2.26936542e+15
1.35936821e+00 8.56538534e-01 -1.44064856e+00 -2.26936542e+15
7.89165795e-01 9.18932557e-01 -1.33776426e+00 -2.26936542e+15
8.50012243e-01 9.24053192e-01 -1.33356059e+00 -2.26936542e+15
8.15766931e-01 9.30068672e-01 -1.33916771e+00 -2.26936542e+15
8.69150162e-01 9.37457621e-01 -1.33802938e+00 -2.26936542e+15
6.97890222e-01 8.75229418e-01 -1.22494483e+00 -2.26936542e+15
9.52795446e-01 8.94466877e-01 -1.31746006e+00 -2.26936542e+15
1.04127192e+00 9.31743622e-01 -1.34177732e+00 -2.26936542e+15
9.60796714e-01 9.28323627e-01 -1.33638048e+00 -2.26936542e+15
8.98509383e-01 9.07638371e-01 -1.32421982e+00 -2.26936542e+15
7.57869482e-01 7.82931685e-01 -1.30446041e+00 -2.26936542e+15
6.90803170e-01 1.03638613e+00 -1.35391569e+00 -2.26936542e+15
9.88764465e-01 9.18717861e-01 -1.33231771e+00 -2.26936542e+15
7.10647762e-01 7.80512452e-01 -1.24684703e+00 -2.26936542e+15
1.35427487e+00 7.76769698e-01 -1.40734160e+00 -2.26936542e+15
9.19640303e-01 9.14763868e-01 -1.32594514e+00 -2.26936542e+15
8.46940756e-01 9.04876888e-01 -1.32570243e+00 -2.26936542e+15
1.30334115e+00 7.95831859e-01 -1.39885736e+00 -2.26936542e+15
1.32403851e+00 8.41818929e-01 -1.42639935e+00 -2.26936542e+15
8.54780138e-01 9.37643528e-01 -1.34030163e+00 -2.26936542e+15
6.93442166e-01 9.27950621e-01 -1.26034665e+00 -2.26936542e+15
7.00936019e-01 8.14636171e-01 -1.23281240e+00 -2.26936542e+15
1.27469313e+00 9.17122006e-01 -1.40049279e+00 -2.26936542e+15
9.69557822e-01 9.18202043e-01 -1.33196056e+00 -2.26936542e+15
9.24445093e-01 9.01847959e-01 -1.32019234e+00 -2.26936542e+15
6.95810378e-01 8.84064376e-01 -1.23454833e+00 -2.26936542e+15
1.28592110e+00 8.96533966e-01 -1.40421045e+00 -2.26936542e+15
7.48542249e-01 8.16621721e-01 -1.30886567e+00 -2.26936542e+15
9.43963945e-01 9.15965021e-01 -1.32562828e+00 -2.26936542e+15
1.01746917e+00 9.13863659e-01 -1.32767570e+00 -2.26936542e+15
1.00182998e+00 9.33033705e-01 -1.34009695e+00 -2.26936542e+15
7.49986768e-01 7.72134781e-01 -1.30130589e+00 -2.26936542e+15
1.01396334e+00 7.86765337e-01 -1.19392824e+00 -2.26936542e+15
7.46395350e-01 9.18042123e-01 -1.34586656e+00 -2.26936542e+15
6.92939520e-01 8.46573114e-01 -1.22953761e+00 -2.26936542e+15
5.81416309e-01 1.22883844e+00 -1.73904538e+00 -2.26936542e+15
5.51038682e-01 1.28128457e+00 -1.90277719e+00 -2.26936542e+15
3.06822956e-01 1.43552458e+00 -2.95881152e+00 -2.26936542e+15
7.55510926e-01 8.25497448e-01 -1.31134260e+00 -2.26936542e+15
9.01725292e-01 9.40470040e-01 -1.34301424e+00 -2.26936542e+15
9.40003932e-01 8.37797821e-01 -1.30165720e+00 -2.26936542e+15
9.57559347e-01 9.39710200e-01 -1.34365571e+00 -2.26936542e+15
8.00238371e-01 9.29747820e-01 -1.34373415e+00 -2.26936542e+15
7.04305291e-01 1.53279078e+00 -2.66068196e+00 -2.26936542e+15
1.27341247e+00 7.82905817e-01 -1.37788141e+00 -2.26936542e+15
1.30350304e+00 9.12179768e-01 -1.39778161e+00 -2.26936542e+15
7.20306277e-01 1.37327969e+00 -2.16886806e+00 -2.26936542e+15
5.99300802e-01 8.30398858e-01 -1.16409719e+00 -2.26936542e+15
1.01517916e+00 7.74497986e-01 -1.20017350e+00 -2.26936542e+15
1.04335296e+00 7.88262069e-01 -1.21114135e+00 -2.26936542e+15
8.00652444e-01 1.32335126e+00 -2.01261473e+00 -2.26936542e+15
5.93597054e-01 8.44392896e-01 -1.16502154e+00 -2.26936542e+15
1.04722822e+00 7.87404120e-01 -1.22695005e+00 -2.26936542e+15
7.12898195e-01 7.66244531e-01 -1.25244522e+00 -2.26936542e+15
3.68467212e-01 1.38642371e+00 -2.75548220e+00 -2.26936542e+15
1.00630081e+00 7.68336177e-01 -1.20693135e+00 -2.26936542e+15
6.52213514e-01 1.05674970e+00 -1.39973569e+00 -2.26936542e+15
1.08245599e+00 9.31807876e-01 -1.34916770e+00 -2.26936542e+15
6.76836610e-01 7.90634811e-01 -1.20406556e+00 -2.26936542e+15
5.91090977e-01 8.65412176e-01 -1.16937590e+00 -2.26936542e+15
6.51715875e-01 8.65107417e-01 -1.19408190e+00 -2.26936542e+15
6.55744910e-01 1.15504849e+00 -1.74265182e+00 -2.26936542e+15
6.32210672e-01 8.34457040e-01 -1.17786562e+00 -2.26936542e+15
5.81854701e-01 9.53684747e-01 -1.19998181e+00 -2.26936542e+15
1.36168206e+00 1.43950248e+00 -1.53984869e+00 -2.26936542e+15
