# .PCD v.7 - Point Cloud Data file format
VERSION .7
FIELDS x y z rgb
SIZE 4 4 4 4
TYPE F F F F
COUNT 1 1 1 1
WIDTH 775
HEIGHT 1
VIEWPOINT 0 0 0 1 0 0 0
POINTS 775
DATA ascii
2.20705533e+00 2.61567521e+00 -2.03782225e+00 -1.56363320e+37
1.37500978e+00 1.73940301e+00 -4.27444077e+00 -1.45530789e+37
1.27435935e+00 1.14391291e+00 -2.61908245e+00 -1.85528259e+37
9.91154850e-01 -6.67897582e-01 -3.92707705e+00 -1.88939101e+37
2.94894242e+00 4.83722508e-01 -1.74441075e+00 -1.50609479e+37
1.98472893e+00 -9.64537084e-01 -1.93408859e+00 -1.38024726e+37
1.30433464e+00 2.44031239e+00 -1.31236875e+00 -1.90532094e+37
-7.72206604e-01 5.14541626e-01 -1.31433654e+00 -1.42191633e+37
1.01506352e+00 2.05679131e+00 -3.65206051e+00 -1.58852618e+37
1.67648757e+00 1.61742949e+00 -1.51100564e+00 -1.42211446e+37
1.73561120e+00 1.26106691e+00 -1.73193777e+00 -1.63074769e+37
-8.58224392e-01 -1.73113346e+00 -2.94100714e+00 -1.48863924e+37
-6.62669390e-02 -5.71322024e-01 -9.73353148e-01 -1.38145267e+37
4.39739496e-01 -1.43080974e+00 -3.74190974e+00 -1.37200525e+37
1.15394080e+00 -4.94653285e-01 -1.41146457e+00 -1.63068279e+37
2.01437759e+00 -1.51643062e+00 -5.11070728e+00 -1.39718979e+37
1.32122338e+00 -3.14300388e-01 -8.94290984e-01 -1.44677356e+37
-1.14026833e+00 4.71648121e+00 -6.98788834e+00 -1.72186997e+37
-1.95389748e-01 9.74517107e-01 -5.92361033e-01 -1.31371994e+37
1.18438554e+00 1.72266722e+00 -1.30543947e+00 -1.39722110e+37
1.83801746e+00 1.27646625e+00 -9.16727856e-02 -1.81351337e+37
1.02920258e+00 3.36335152e-01 -2.14683127e+00 -1.89590863e+37
2.08459878e+00 4.85775620e-01 -1.05244064e+00 -1.59832956e+37
7.65768170e-01 -9.88650262e-01 -1.97300708e+00 -1.44683872e+37
2.61750555e+00 -4.08752352e-01 -1.62748337e+00 -1.36392613e+37
-3.58695686e-01 2.10601354e+00 -1.02399075e+00 -1.58090430e+37
-2.31784892e+00 2.51947379e+00 -3.72077084e+00 -1.47215154e+37
5.90111136e-01 2.04116702e+00 -8.17778468e-01 -1.40601885e+37
2.70974964e-01 1.43140948e+00 -5.68852425e-01 -1.37190688e+37
5.37419796e-01 2.41166115e+00 -1.90542853e+00 -1.94800096e+37
4.60619926e-02 1.14296305e+00 -1.04853165e+00 -1.50587206e+37
-2.15337232e-01 4.90870863e-01 -1.24142182e+00 -1.33027279e+37
1.47957039e+00 1.23544204e+00 1.75625488e-01 -1.41357658e+37
-7.47814417e-01 6.92192912e-02 -3.26732922e+00 -1.87101806e+37
6.20837927e-01 -3.16309661e-01 -3.52139878e+00 -1.41360890e+37
2.49752498e+00 8.37723434e-01 -1.91613114e+00 -1.59742116e+37
1.02576363e+00 2.35269010e-01 -3.06005478e-01 -1.50489395e+37
2.78090096e+00 7.90417194e-02 -3.17042732e+00 -1.60536895e+37
8.23290706e-01 -2.19938111e+00 -2.92183757e+00 -1.52196768e+37
2.22920924e-02 2.22925615e+00 6.84321225e-02 -1.71389011e+37
5.22349298e-01 2.55346060e+00 1.21742040e-01 -1.53050036e+37
1.11987495e+00 2.76242661e+00 1.85242727e-01 -1.48964753e+37
1.39320707e+00 2.80443144e+00 1.88787386e-01 -1.67218808e+37
1.91465449e+00 3.09445000e+00 1.78013265e-01 -1.78940380e+37
2.28454018e+00 3.25669265e+00 1.69835746e-01 -1.38832840e+37
2.85391402e+00 3.64997077e+00 1.56934142e-01 -1.61367802e+37
2.96255255e+00 3.73056149e+00 1.47521570e-01 -1.61393586e+37
2.96682835e+00 3.50583458e+00 1.54852673e-01 -1.66430570e+37
2.74089122e+00 3.29379725e+00 1.60302743e-01 -1.43123635e+37
3.07780051e+00 3.45779228e+00 1.52773425e-01 -1.67205611e+37
3.12713051e+00 3.22873998e+00 1.51997402e-01 -1.42211180e+37
1.77253270e+00 2.45828247e+00 9.32275131e-02 -1.85502044e+37
3.06648159e+00 3.06225109e+00 1.51833728e-01 -1.65518280e+37
3.24904084e+00 3.12299037e+00 1.43517986e-01 -1.54701975e+37
2.78703308e+00 2.70798969e+00 1.57284468e-01 -1.06338240e+37
3.24314547e+00 3.05449629e+00 1.43961504e-01 -1.63009726e+37
3.27664614e+00 2.90350175e+00 1.35043696e-01 -1.41426263e+37
3.22797632e+00 2.59802938e+00 1.25718400e-01 -1.47211985e+37
3.24659467e+00 2.61380935e+00 1.25727057e-01 -1.80507551e+37
3.41464782e+00 2.69790316e+00 1.16568670e-01 -1.60556607e+37
2.75718832e+00 2.25228357e+00 1.42868429e-01 -1.74734987e+37
3.45508552e+00 2.68466425e+00 1.16029561e-01 -1.36402513e+37
3.57422566e+00 2.53082347e+00 1.03221148e-01 -1.43911619e+37
3.55859303e+00 2.29475856e+00 9.66234282e-02 -1.53880816e+37
3.61271882e+00 2.28747988e+00 9.37554017e-02 -1.59683195e+37
3.64382863e+00 2.23484683e+00 8.96499082e-02 -1.78911579e+37
2.93437481e+00 1.76258695e+00 1.15537055e-01 -1.88046282e+37
3.25144434e+00 1.91574085e+00 1.01272494e-01 -1.06338240e+37
3.81982088e+00 2.14546514e+00 8.67945105e-02 -1.68834783e+37
3.85196209e+00 1.90835381e+00 7.94095621e-02 -1.61406756e+37
3.90115452e+00 1.75360167e+00 7.41621926e-02 -1.64723235e+37
4.05210257e+00 1.73915350e+00 7.33359233e-02 -1.44696979e+37
4.07755947e+00 1.64090919e+00 7.02376962e-02 -1.72213034e+37
4.09170532e+00 1.41061366e+00 6.28692657e-02 -1.33935855e+37
4.18283319e+00 1.33015406e+00 6.01530522e-02 -1.82918508e+37
-1.26528323e+00 1.77887821e+00 -3.29130721e+00 -1.58946830e+37
-1.40085816e-01 1.47486186e+00 -1.21626580e+00 -1.52222691e+37
1.31877363e+00 1.36037064e+00 -5.54425359e-01 -1.62146342e+37
-1.98101595e-01 5.40369511e-01 -2.14816856e+00 -1.76402632e+37
6.70173019e-02 8.91074061e-01 -2.87535763e+00 -1.51352551e+37
-1.28634524e+00 -8.83317173e-01 -3.30604601e+00 -1.63032708e+37
4.67103988e-01 1.43157125e-01 -2.84336877e+00 -1.40542990e+37
8.47023666e-01 4.45312560e-01 -3.65883374e+00 -1.52180339e+37
2.07023501e+00 1.03759360e+00 -5.23776388e+00 -1.37252473e+37
-4.99309957e-01 -7.28230119e-01 -1.57865369e+00 -1.47189130e+37
4.73275721e-01 -2.68442297e+00 -4.52198648e+00 -1.72183637e+37
5.59681654e-01 1.70085788e+00 1.27862155e-01 -1.71372556e+37
8.31399858e-01 -2.38333821e+00 -1.12223682e+01 -1.46394059e+37
8.96138549e-01 2.26319820e-01 9.55071226e-02 -1.73004796e+37
1.21675193e-01 2.34511518e+00 -1.16428721e+00 -1.46377909e+37
1.15688288e+00 2.58670950e+00 -2.14094448e+00 -1.77171449e+37
2.79538333e-01 1.50768042e+00 -7.86776364e-01 -1.45560363e+37
1.15811002e+00 1.34175980e+00 -1.34259868e+00 -1.51391898e+37
4.73050737e+00 3.79310966e+00 -7.77993441e+00 -1.64687487e+37
1.42392302e+00 2.54735494e+00 -3.99583615e-02 -1.51385547e+37
2.33043957e+00 6.14268541e-01 -3.53367925e+00 -1.70529024e+37
1.79477942e+00 9.39449519e-02 -5.26760006e+00 -1.38884649e+37
-1.44772911e+00 -2.20156264e+00 -5.62612724e+00 -1.51356138e+37
-4.18559760e-01 2.83835745e+00 -1.82433331e+00 -1.70564480e+37
9.77161705e-01 2.25245643e+00 -5.35527349e-01 -1.95432096e+37
-5.02015710e-01 6.84459984e-01 -1.34646893e+00 -1.53037081e+37
1.99094796e+00 2.24555492e+00 -1.97296846e+00 -1.47117799e+37
1.23437583e+00 1.06726372e+00 -9.22487497e-01 -1.54754037e+37
2.83118796e+00 1.11486423e+00 -1.44174135e+00 -1.42236964e+37
2.71419668e+00 -1.80378526e-01 -2.61435556e+00 -1.68848005e+37
3.29242873e+00 -2.32983899e+00 -4.83307123e+00 -1.36356624e+37
7.85943866e-02 3.79312420e+00 -3.15884852e+00 -1.83077776e+37
2.67172599e+00 2.78128242e+00 -1.07326478e-01 -1.64762329e+37
-1.07132506e+00 1.12727225e+00 -3.69412518e+00 -1.63987110e+37
3.08712816e+00 2.18399048e+00 -1.92787445e+00 -1.66394607e+37
2.36343837e+00 7.09598243e-01 -1.05581141e+00 -1.33053215e+37
-3.34955126e-01 1.73229456e+00 -2.12140536e+00 -1.44703482e+37
-1.22208178e+00 7.14579448e-02 -2.48404408e+00 -1.77223905e+37
2.41560555e+00 7.76782095e-01 -3.57291579e+00 -1.44696650e+37
2.47938585e+00 2.90057212e-01 -2.04214883e+00 -1.78018747e+37
-5.39969206e+00 3.95677519e+00 -8.17526054e+00 -1.86371842e+37
2.50491095e+00 2.38071299e+00 -5.32501698e-01 -1.75585099e+37
2.92977333e+00 2.50082970e+00 -4.21814489e+00 -1.71411841e+37
-4.36067194e-01 -7.04009473e-01 -3.73623419e+00 -1.38008386e+37
-9.77026597e-02 1.83453345e+00 -1.02406275e+00 -1.66297061e+37
6.05199993e-01 2.03367019e+00 -9.05971467e-01 -1.53897093e+37
1.80392945e+00 5.14094973e+00 -5.38059950e+00 -1.62204907e+37
3.31123877e+00 1.09777105e+00 -1.10420990e+01 -1.70580997e+37
-1.03861101e-01 4.40453053e+00 -2.52771258e+00 -1.38038099e+37
2.64421892e+00 3.41125321e+00 -1.97780383e+00 -1.38028047e+37
1.24794602e+00 1.53808522e+00 -1.85412967e+00 -1.56487461e+37
6.69051349e-01 3.01174223e-01 -1.31241453e+00 -1.85592947e+37
8.77122641e-01 4.21795137e-02 -1.23918962e+00 -1.62963989e+37
-3.43795109e+00 2.61015630e+00 -6.51724768e+00 -1.66394645e+37
8.29551876e-01 5.34699082e-01 -3.82145619e+00 -1.58872330e+37
1.14608240e+00 9.49752450e-01 -5.71192384e-01 -1.35545328e+37
1.69439673e-01 9.30480510e-02 -1.25178313e+00 -1.65553761e+37
-1.02661872e+00 8.18694115e-01 -4.24979210e+00 -1.58852479e+37
4.04240227e+00 2.34494328e+00 -2.85542011e+00 -1.57145371e+37
8.74762759e-02 8.51336494e-02 -1.48661637e+00 -1.58038152e+37
2.03744793e+00 9.36943829e-01 -5.76127887e-01 -1.37203858e+37
2.78557849e+00 -1.10984230e+00 -3.15832567e+00 -1.43116929e+37
-1.76651168e+00 3.46619415e+00 -4.47331190e+00 -1.48062262e+37
-1.45327163e+00 1.28215051e+00 -3.37766194e+00 -1.37236298e+37
4.21506691e+00 -1.72516477e+00 -8.33029461e+00 -1.60588944e+37
3.87451434e+00 -2.51733094e-01 -4.42206573e+00 -1.68091699e+37
8.31188202e-01 2.12237024e+00 -1.14754558e+00 -1.55571596e+37
1.46156573e+00 -2.75740423e-03 -6.00312471e+00 -1.54721497e+37
6.25197411e-01 1.79980767e+00 -1.06177187e+00 -1.70574608e+37
1.98576677e+00 3.54065084e+00 1.76442340e-01 -1.43064638e+37
2.20484185e+00 3.55756068e+00 1.71292692e-01 -1.52167244e+37
3.04907537e+00 3.82287717e+00 1.40210465e-01 -1.46312803e+37
3.24472189e+00 3.90423036e+00 1.27969101e-01 -1.53920253e+37
3.48138738e+00 4.00425243e+00 1.26418337e-01 -1.65527787e+37
3.82669663e+00 4.19029856e+00 1.18069217e-01 -1.57259321e+37
2.83794165e+00 3.68410492e+00 1.56412140e-01 -1.33040057e+37
3.47638702e+00 3.82238913e+00 1.33290842e-01 -1.51307460e+37
3.64019132e+00 3.96453190e+00 1.34453341e-01 -1.78012586e+37
3.88930607e+00 3.97509146e+00 1.22855850e-01 -1.56337574e+37
4.13051987e+00 4.08603907e+00 1.06957555e-01 -1.08024114e+37
4.28800631e+00 4.17845964e+00 9.59634632e-02 -1.58901270e+37
4.68064928e+00 4.26060581e+00 7.55522698e-02 -1.56425561e+37
3.39073491e+00 5.13875484e+00 -2.16319466e+00 -1.43006009e+37
3.71100569e+00 3.76827931e+00 1.37041450e-01 -1.82964106e+37
3.92430305e+00 3.80936098e+00 1.25562862e-01 -1.52288254e+37
4.03658915e+00 3.94738770e+00 1.15884997e-01 -1.45495295e+37
4.41974878e+00 4.15103531e+00 8.87940601e-02 -1.61374051e+37
4.64204979e+00 4.23321342e+00 7.78162032e-02 -1.53877761e+37
3.08348584e+00 3.52007413e+00 3.99988443e-02 -1.69710793e+37
3.72214603e+00 3.71552730e+00 1.37703851e-01 -1.82201563e+37
3.77492857e+00 3.69015551e+00 1.36863068e-01 -1.63012743e+37
4.04643583e+00 3.69479060e+00 1.23269424e-01 -1.59735397e+37
4.09112358e+00 3.71733189e+00 1.20865278e-01 -1.77194267e+37
4.19657707e+00 3.88546896e+00 1.08721368e-01 -1.06338240e+37
4.48376083e+00 3.86178851e+00 9.63107049e-02 -1.40559355e+37
4.73671484e+00 3.98047853e+00 8.06876794e-02 -1.23856144e+37
4.03215742e+00 3.65756083e+00 1.25405386e-01 -1.44811030e+37
4.27362728e+00 3.68143225e+00 1.13551378e-01 -1.33753567e+37
4.78941774e+00 3.81032562e+00 8.45840648e-02 -1.46306401e+37
3.69879174e+00 3.26853728e+00 1.25720233e-01 -1.38894473e+37
4.23584604e+00 3.56004333e+00 1.16861545e-01 -1.56383159e+37
4.52789640e+00 3.63892484e+00 1.01614162e-01 -1.63025812e+37
4.79865456e+00 3.78118563e+00 8.50757509e-02 -1.59634416e+37
4.45817852e+00 3.41014409e+00 1.08847886e-01 -1.59455437e+37
4.56878185e+00 3.55759025e+00 1.00918487e-01 -1.52988251e+37
4.89398956e+00 3.65328360e+00 8.43562037e-02 -1.55529573e+37
4.21401882e+00 3.25503397e+00 1.22876786e-01 -1.51414513e+37
4.36262321e+00 3.28157234e+00 1.15440220e-01 -1.06345985e+37
4.46341705e+00 3.31673408e+00 1.09832883e-01 -3.33646323e+37
4.64911175e+00 3.27938509e+00 1.01685174e-01 -1.17982003e+37
4.76336813e+00 3.33800769e+00 9.54973847e-02 -1.59683360e+37
4.95601320e+00 3.44967747e+00 8.45400244e-02 -1.47179356e+37
4.40305281e+00 3.16277695e+00 1.15056768e-01 -1.07874505e+37
4.75386667e+00 3.14972544e+00 9.81505811e-02 -1.66293410e+37
4.96295500e+00 3.28498983e+00 8.76098797e-02 -1.49687834e+37
4.03744745e+00 2.82467079e+00 1.15149468e-01 -1.61328707e+37
4.07933998e+00 2.83252215e+00 1.14594601e-01 -1.94653441e+37
4.47955561e+00 2.93621206e+00 1.14997789e-01 -1.06338240e+37
4.77548885e+00 3.10610676e+00 9.76503715e-02 -1.31430661e+37
5.03839874e+00 3.16323376e+00 8.56775567e-02 -1.84713793e+37
3.94010878e+00 2.70961165e+00 1.10543199e-01 -1.41409834e+37
4.07088327e+00 2.74758267e+00 1.13450892e-01 -1.59689787e+37
4.52821398e+00 2.87055087e+00 1.13624088e-01 -1.06338240e+37
4.54998636e+00 2.88416338e+00 1.12437122e-01 -1.06338240e+37
4.99495697e+00 2.95037866e+00 9.10487473e-02 -1.71392091e+37
5.14399624e+00 2.97430754e+00 8.29210803e-02 -1.48831219e+37
4.44774818e+00 2.61523867e+00 1.08875677e-01 -1.43878977e+37
4.69524670e+00 2.78726363e+00 1.07235678e-01 -1.78051503e+37
4.91664648e+00 2.74612808e+00 9.70843285e-02 -1.77305313e+37
5.10007811e+00 2.80005527e+00 8.82903114e-02 -1.63087547e+37
4.58257723e+00 2.45653915e+00 1.02742337e-01 -1.50505773e+37
4.91436386e+00 2.59322619e+00 9.98038724e-02 -1.39722160e+37
5.12956142e+00 2.73914385e+00 8.61611068e-02 -1.58067207e+37
4.18496132e+00 2.27539682e+00 9.48602036e-02 -1.68046165e+37
4.40983486e+00 2.32044673e+00 9.78804529e-02 -1.53868064e+37
4.42882061e+00 2.32053232e+00 9.79968160e-02 -1.57252881e+37
4.61913967e+00 2.45667887e+00 1.04441106e-01 -3.60994464e+37
4.75704670e+00 2.51037765e+00 1.07163347e-01 -2.13619206e+37
4.91273451e+00 2.54177141e+00 9.97076333e-02 -1.34734107e+37
5.22350073e+00 2.51492834e+00 8.69152620e-02 -1.79686633e+37
3.66446400e+00 1.96017051e+00 7.99625367e-02 -1.75721980e+37
3.80165529e+00 2.00753808e+00 8.27227980e-02 -1.31362474e+37
4.41969776e+00 2.08419490e+00 8.86412263e-02 -1.47150289e+37
4.64840460e+00 2.27375340e+00 9.79426056e-02 -1.42197958e+37
4.99285555e+00 2.41633511e+00 1.00052632e-01 -1.45495054e+37
5.09498882e+00 2.41666269e+00 9.39718559e-02 -1.45527442e+37
5.23794031e+00 2.45551610e+00 8.62412378e-02 -1.53828893e+37
4.09204721e+00 1.87342882e+00 8.01299289e-02 -1.50480052e+37
4.37153149e+00 1.96990001e+00 8.43676627e-02 -1.88769793e+37
4.41222334e+00 2.06880093e+00 8.84628743e-02 -1.33111705e+37
4.99122477e+00 2.17178822e+00 9.52420607e-02 -1.52209723e+37
5.26195765e+00 2.27135611e+00 8.59403759e-02 -1.49714137e+37
4.17201233e+00 1.79536450e+00 7.59075284e-02 -1.47185758e+37
4.31413221e+00 1.84519637e+00 7.92742819e-02 -1.50499270e+37
4.51523972e+00 1.94182837e+00 8.49351287e-02 -1.73046882e+37
4.82109404e+00 1.99565923e+00 8.81617218e-02 -1.08942805e+37
5.03154898e+00 2.01041698e+00 9.02995765e-02 -1.48036262e+37
5.36729097e+00 2.11425900e+00 8.50440636e-02 -1.68030231e+37
2.84361100e+00 1.11128163e+00 -3.86914508e-05 -1.71372823e+37
4.04507446e+00 1.46091998e+00 6.37684241e-02 -1.53004882e+37
4.09954596e+00 1.59933317e+00 6.92288652e-02 -1.56399346e+37
4.25675392e+00 1.57459509e+00 6.87508360e-02 -1.63856618e+37
4.58759308e+00 1.76285124e+00 7.73874298e-02 -1.60631360e+37
4.79645395e+00 1.71725321e+00 7.68831149e-02 -1.50580640e+37
5.03105927e+00 1.94457340e+00 8.74339119e-02 -1.64690770e+37
5.42764235e+00 2.03729796e+00 8.31308290e-02 -1.48827669e+37
4.46372604e+00 1.53499401e+00 6.92041069e-02 -1.45556801e+37
4.63968706e+00 1.58314157e+00 7.14587569e-02 -1.55561974e+37
4.82406044e+00 1.64121926e+00 7.45473504e-02 -1.49675436e+37
5.25784731e+00 1.74767923e+00 8.12337771e-02 -1.43849846e+37
5.48857450e+00 1.89707053e+00 8.24756846e-02 -1.48046036e+37
2.24645495e+00 8.89927208e-01 -2.06873488e+00 -1.25586132e+37
1.67061186e+00 5.63050890e+00 -4.35211325e+00 -1.50528527e+37
2.21332407e+00 1.26484370e+00 -1.85084224e+00 -1.48075331e+37
1.70671773e+00 3.34486747e+00 1.81482002e-01 -1.61416340e+37
1.73186731e+00 3.34161687e+00 1.80902153e-01 -1.63097739e+37
2.04628325e+00 3.23284459e+00 1.74035266e-01 -1.58937474e+37
2.67450666e+00 3.21816635e+00 1.63159251e-01 -1.54698540e+37
3.48504519e+00 3.99821448e+00 -1.26825869e+00 -1.47172878e+37
3.60499525e+00 3.06542993e+00 -5.44955693e-02 -1.74646797e+37
2.01283574e+00 1.90143108e+00 1.72203362e-01 -1.77243706e+37
3.66877651e+00 2.31570125e+00 -2.28066463e-02 -1.63915437e+37
2.73863459e+00 1.76395953e+00 1.22794345e-01 -1.73037387e+37
1.67733479e+00 1.17768872e+00 -2.58079857e-01 -1.28892913e+37
2.12277269e+00 1.19901741e+00 1.36659637e-01 -1.63051888e+37
3.05439520e+00 1.33658504e+00 9.04718861e-02 -1.21399792e+37
3.70523238e+00 1.39851713e+00 -1.15395226e-01 -1.40546400e+37
4.01237822e+00 1.52646399e+00 -2.08621830e-01 -1.58047749e+37
4.07328272e+00 1.74781525e+00 7.34893084e-02 -1.38014927e+37
3.25783968e+00 1.26188385e+00 7.64809474e-02 -1.70584382e+37
5.31584620e-01 2.62717080e+00 -1.69612098e+00 -1.66401300e+37
1.24963570e+00 6.53002322e-01 -2.26788712e+00 -1.53871030e+37
2.19101024e+00 3.73179817e+00 -4.88654748e-02 -1.65511574e+37
3.49679327e+00 4.05487108e+00 1.24491863e-01 -1.33082447e+37
1.76716793e+00 1.66985381e+00 -1.45247006e+00 -1.70519111e+37
-1.25156581e-01 4.64606822e-01 -2.51386809e+00 -1.75546258e+37
3.66953945e+00 2.00093532e+00 8.14087540e-02 -2.00710339e+37
5.34492540e+00 1.70103610e+00 -2.24389029e+00 -1.27289867e+37
4.31495619e+00 1.97311246e+00 -9.75605026e-02 -1.65566539e+37
2.21592402e+00 5.23831320e+00 -2.19474125e+00 -2.10614012e+37
2.04215956e+00 3.40830255e+00 1.74676850e-01 -1.61468745e+37
2.22958970e+00 4.33702517e+00 -9.75895584e-01 -1.82263919e+37
-4.62919950e+00 1.60781364e+01 -2.34588642e+01 -1.67221774e+37
3.76864481e+00 4.29521656e+00 -3.01768112e+00 -1.41357569e+37
3.54574609e+00 3.49496269e+00 -9.02212679e-01 -1.47221708e+37
4.23083639e+00 3.18053746e+00 -2.53212273e-01 -1.59767976e+37
4.54780722e+00 2.90216327e+00 -2.78312445e-01 -1.28032901e+37
5.51970196e+00 2.55686736e+00 -1.93641949e+00 -1.40529907e+37
5.46925259e+00 4.85377491e-01 -1.58331645e+00 -1.58878427e+37
2.68610811e+00 3.54412580e+00 -1.76701427e-01 -1.56392856e+37
4.58821154e+00 7.58250856e+00 -8.07506371e+00 -1.67244807e+37
2.01189563e-01 7.91765356e+00 -1.60415268e+01 -1.68873776e+37
4.17540693e+00 4.10448408e+00 -2.10687041e+00 -1.62970758e+37
7.23793566e-01 2.82994914e+00 -4.20389700e+00 -1.45524451e+37
4.49890566e+00 3.57513905e+00 -1.51943851e+00 -1.57187812e+37
4.45348787e+00 2.87850595e+00 -9.19582665e-01 -1.59673587e+37
3.55455995e+00 2.18292856e+00 -2.17423344e+00 -1.63879296e+37
4.67267656e+00 2.59012294e+00 -1.57931864e+00 -1.40539605e+37
5.72705460e+00 2.50603747e+00 -2.91844702e+00 -1.56470639e+37
4.21765471e+00 1.20370817e+00 -2.87791491e+00 -1.57298630e+37
3.92714286e+00 1.57376319e-01 -2.70512986e+00 -1.54711774e+37
2.32320905e+00 4.82287979e+00 -2.08088756e+00 -1.42227583e+37
-9.77876902e-01 1.61356568e+00 -3.54301310e+00 -1.50525561e+37
1.15617871e+00 2.25951290e+00 -2.54719210e+00 -1.56383019e+37
8.04929924e+00 2.15451145e+00 -5.32479620e+00 -1.59689838e+37
2.24104118e+00 1.45478737e+00 -6.17793202e-01 -1.42155809e+37
4.18649960e+00 9.15944755e-01 -2.68068862e+00 -1.55552290e+37
4.99721384e+00 1.61833620e+00 -1.64592016e+00 -1.44826863e+37
4.16727018e+00 1.20489001e+00 -1.51346505e+00 -1.83078321e+37
3.19588399e+00 4.63507891e+00 -2.15215325e+00 -1.43875947e+37
3.98928642e+00 4.53815556e+00 -2.83307147e+00 -1.42155885e+37
2.00924253e+00 2.48671365e+00 -1.64022255e+00 -1.56470829e+37
7.39390552e-01 3.90700579e-01 -4.38637400e+00 -1.58148945e+37
4.30543184e+00 2.00345111e+00 -9.34089184e-01 -1.71379541e+37
3.46893835e+00 1.51367676e+00 -5.10138464e+00 -1.53085949e+37
1.70809817e+00 1.79070234e+00 -1.83029163e+00 -1.56399435e+37
5.05048227e+00 2.86445570e+00 -1.03313792e+00 -1.71372861e+37
3.47887301e+00 3.57968807e+00 -6.86686337e-02 -1.54711672e+37
4.15204287e+00 4.58189154e+00 -1.75878847e+00 -1.63035649e+37
-9.75211561e-01 2.24888635e+00 -3.84916425e+00 -1.66411035e+37
1.48181403e+00 1.49194384e+00 -3.63311887e+00 -1.53903811e+37
6.31162596e+00 -2.24566445e-01 -5.57635880e+00 -1.55500544e+37
1.71404228e+01 -1.01339712e+01 -2.11940117e+01 -1.71382165e+37
4.01984406e+00 1.31282997e+00 -3.70621657e+00 -1.70564442e+37
4.12485504e+00 3.15126717e-01 -3.23553276e+00 -1.81335137e+37
4.96892071e+00 -2.52105832e+00 -5.81349659e+00 -1.75656962e+37
4.59376192e+00 4.29538965e+00 7.76042119e-02 -1.67195774e+37
6.29832792e+00 4.34574127e+00 -2.20512636e-02 -1.58881875e+37
5.92931414e+00 4.15226460e+00 3.02574085e-03 -1.53079053e+37
5.94169044e+00 4.15992451e+00 2.58077821e-03 -1.62292654e+37
6.21015358e+00 4.25725126e+00 -1.56178772e-02 -3.60994566e+37
6.26899052e+00 4.20932817e+00 -1.25401746e-02 -1.50535131e+37
6.47876549e+00 4.28139067e+00 -1.73822921e-02 -1.35489995e+37
6.68476200e+00 4.28034163e+00 -1.81870796e-02 -1.40539719e+37
5.61507225e+00 3.93743014e+00 3.79322618e-02 -1.27267012e+37
6.33114481e+00 3.99716187e+00 1.49220543e-03 -1.37203795e+37
6.62461996e+00 4.07311153e+00 -1.14140920e-02 -1.47202136e+37
6.18024015e+00 3.93791533e+00 5.59277507e-03 -3.60994642e+37
6.37960386e+00 3.82172227e+00 6.30823849e-03 -1.48860641e+37
6.61751413e+00 3.89227247e+00 -8.17670859e-03 -1.63814507e+37
5.78938055e+00 3.65314269e+00 3.77848782e-02 -1.47218438e+37
6.10816717e+00 3.76227522e+00 1.86186321e-02 -1.16592417e+37
6.38184500e+00 3.79659748e+00 6.24135928e-03 -1.61338240e+37
6.66587448e+00 3.79485059e+00 -9.65334941e-03 -1.59715787e+37
5.29890394e+00 3.47884679e+00 6.63454160e-02 -1.63918619e+37
6.28849506e+00 3.49297380e+00 2.55884007e-02 -1.49678364e+37
6.44066286e+00 3.52087784e+00 1.54255070e-02 -1.50505735e+37
6.68261576e+00 3.53215170e+00 1.26246980e-03 -1.91356612e+37
3.65786815e+00 3.44858766e+00 -9.64089572e-01 -1.38855518e+37
6.75837278e+00 3.45602846e+00 1.81018189e-03 -1.83061854e+37
5.82017946e+00 3.24974513e+00 4.35952321e-02 -1.88072852e+37
6.12879515e+00 3.25272775e+00 3.12963016e-02 -1.06338265e+37
6.46049500e+00 3.22491574e+00 3.33452597e-02 -1.43061393e+37
6.67885637e+00 3.25728917e+00 2.00128872e-02 -1.42208137e+37
6.02052259e+00 3.00571871e+00 3.70478407e-02 -1.76415727e+37
6.41196632e+00 3.04574919e+00 3.49323712e-02 -1.38037744e+37
6.66538572e+00 3.11137319e+00 3.20422091e-02 -1.44638236e+37
6.68439293e+00 2.96953416e+00 3.71421054e-02 -1.50512352e+37
6.71108246e+00 2.76651073e+00 4.00879309e-02 -1.58849347e+37
6.38709831e+00 2.70105147e+00 3.98569070e-02 -1.95569205e+37
6.79197407e+00 2.68032146e+00 4.11491282e-02 -1.22197930e+37
6.51266098e+00 2.51942372e+00 4.20122296e-02 -1.32167052e+37
6.69173098e+00 2.53491187e+00 4.19289991e-02 -1.29687717e+37
5.78540277e+00 2.31333661e+00 5.91109022e-02 -1.73900607e+37
6.21600676e+00 2.25821280e+00 4.44293283e-02 -1.46215080e+37
6.27508736e+00 2.29437733e+00 4.43283319e-02 -1.06339051e+37
6.75536776e+00 2.40465760e+00 4.50654142e-02 -1.66414154e+37
5.80683708e+00 2.12465572e+00 6.07210249e-02 -1.58093181e+37
6.20678568e+00 2.20825434e+00 4.57344428e-02 -2.02707269e+37
6.41120911e+00 2.09753799e+00 4.96964343e-02 -1.55513069e+37
6.70299435e+00 2.21396422e+00 4.56003472e-02 -1.19734974e+37
6.51361275e+00 2.06287694e+00 4.94060218e-02 -1.34698233e+37
6.77139282e+00 2.09737849e+00 4.88830879e-02 -1.60540064e+37
5.89173889e+00 1.85463500e+00 6.08335584e-02 -1.52254928e+37
6.76712418e+00 1.82589340e+00 5.15241846e-02 -1.53829007e+37
6.26527548e+00 1.76934230e+00 5.06974459e-02 -2.00214967e+37
6.79202795e+00 1.81607771e+00 5.21321706e-02 -1.74780458e+37
1.28745234e+00 2.30071306e+00 -1.89261925e+00 -1.66387837e+37
2.85859013e+00 5.45447350e-01 -2.90792179e+00 -1.48143632e+37
1.09043360e+00 2.51366878e+00 -2.09535909e+00 -1.82938208e+37
3.43529153e+00 3.81265283e+00 -3.62691820e-01 -1.79768270e+37
3.86168122e+00 4.10010147e+00 -5.42487919e-01 -1.58868755e+37
3.41224027e+00 4.12852573e+00 1.18985303e-01 -1.45557067e+37
3.62461686e+00 4.19566154e+00 1.25846028e-01 -1.51346263e+37
4.23802471e+00 4.31992006e+00 9.38674808e-02 -1.94725190e+37
3.48805356e+00 3.80546880e+00 1.31400838e-01 -1.69723850e+37
2.33398008e+00 4.74962521e+00 -2.73584080e+00 -1.44791343e+37
4.23034382e+00 3.74115658e+00 -1.62507705e-02 -1.43974292e+37
4.56000376e+00 4.06153297e+00 -1.00809085e+00 -1.54708706e+37
3.70889330e+00 2.81362748e+00 1.12954944e-01 -1.65540945e+37
3.67968011e+00 2.62845945e+00 -7.47845590e-01 -1.42993003e+37
3.18487358e+00 2.24124217e+00 1.17416203e-01 -1.78865766e+37
3.35932827e+00 2.21656299e+00 1.05323754e-01 -1.73852094e+37
3.18340445e+00 2.07111669e+00 1.11629680e-01 -1.46384526e+37
3.56581688e+00 1.76827407e+00 8.01653713e-02 -1.64729700e+37
3.70420361e+00 1.86601305e+00 8.05555731e-02 -1.50574086e+37
4.11661768e+00 1.74654460e+00 7.61741623e-02 -1.43094174e+37
1.11638218e-01 5.21447086e+00 -3.31251621e+00 -1.68017250e+37
3.34505820e+00 3.99263000e+00 -4.52843726e-01 -1.33072585e+37
2.87946129e+00 4.18291998e+00 -1.36381936e+00 -1.68909689e+37
3.58017397e+00 4.08033514e+00 -8.07648540e-01 -1.67238304e+37
4.71888161e+00 3.58392739e+00 -1.33572936e+00 -1.66332416e+37
2.42288661e+00 2.66651893e+00 -8.23200345e-01 -1.56444779e+37
3.86878920e+00 1.09983194e+00 -1.04548824e+00 -2.12206980e+37
2.98302388e+00 4.59402561e+00 -1.72328615e+00 -1.76324570e+37
2.94389486e+00 3.34739637e+00 -9.89923477e-01 -1.50495999e+37
3.95292807e+00 1.84495127e+00 -2.98461151e+00 -1.63902368e+37
2.10031247e+00 3.79734230e+00 -2.55493927e+00 -1.63908731e+37
1.87068954e-01 2.85658407e+00 -4.53302145e+00 -1.41396702e+37
4.40134716e+00 2.02507496e+00 -3.55726790e+00 -1.68085348e+37
1.83168685e+00 1.64660084e+00 -2.73825073e+00 -1.43022311e+37
2.58235002e+00 5.21711254e+00 -1.87023163e+00 -1.44696979e+37
2.81949472e+00 4.97575951e+00 -1.44165671e+00 -1.48915860e+37
5.89737272e+00 3.78788614e+00 -4.55583525e+00 -1.64742135e+37
4.42002535e+00 3.00544477e+00 -2.13409972e+00 -1.58849500e+37
2.66701293e+00 3.14826679e+00 -1.21564639e+00 -1.53867937e+37
3.39516139e+00 3.21795011e+00 -2.97655296e+00 -1.53854855e+37
4.08566666e+00 3.24750948e+00 -2.10454178e+00 -1.58093523e+37
4.57479620e+00 4.44496346e+00 7.43343085e-02 -1.54711761e+37
3.60829616e+00 5.50958204e+00 -2.14936876e+00 -1.44742386e+37
4.70333624e+00 4.61483812e+00 -1.97361898e+00 -1.62990115e+37
2.01043081e+00 2.85279179e+00 -2.19996595e+00 -1.79748837e+37
3.78314042e+00 3.11252308e+00 -2.86931086e+00 -1.52281143e+37
4.89469051e+00 3.37332892e+00 -2.85572290e+00 -1.56360100e+37
5.08564138e+00 1.79293895e+00 -2.54429889e+00 -1.79615404e+37
1.55483973e+00 4.02875042e+00 -2.42387247e+00 -1.53910314e+37
5.10312557e+00 3.80678368e+00 -3.08251977e-01 -1.50544943e+37
3.58591890e+00 2.92407632e+00 -4.73357630e+00 -1.57275851e+37
3.29218435e+00 2.36398888e+00 -1.28522909e+00 -1.55532679e+37
6.43434572e+00 1.70682335e+00 -2.01255178e+00 -1.52174102e+37
4.46834707e+00 1.64069307e+00 7.35190287e-02 -1.28844108e+37
4.04619551e+00 -2.11862643e-05 -2.22775865e+00 -1.33900260e+37
2.00713658e+00 -7.66791677e+00 -1.39182844e+01 -1.42217556e+37
1.18034363e+00 3.97893929e+00 -3.04344702e+00 -1.58852263e+37
4.10881424e+00 4.16620636e+00 -4.50314093e+00 -1.33864385e+37
3.09458685e+00 1.26849246e+00 -2.13915300e+00 -1.53877850e+37
3.52623987e+00 1.08068597e+00 -2.37235808e+00 -1.37200347e+37
2.00484991e+00 6.74936235e-01 -1.24565725e+01 -1.62240744e+37
3.97460246e+00 4.70017242e+00 -1.54702687e+00 -1.22188208e+37
5.22026587e+00 3.82457447e+00 -1.76770806e-01 -1.58012077e+37
5.39523745e+00 4.11221313e+00 -3.32264543e+00 -1.48071998e+37
3.76000381e+00 3.45024538e+00 -9.28933859e-01 -1.62944442e+37
6.35635900e+00 3.08708286e+00 -7.58953094e-01 -1.53024037e+37
4.43565512e+00 2.72952390e+00 -1.02433038e+00 -1.72991815e+37
2.14368200e+00 2.22561479e+00 -1.74416554e+00 -1.71411879e+37
2.98849177e+00 1.98102367e+00 -3.62850618e+00 -1.79778107e+37
5.91759968e+00 2.09903097e+00 -5.97127855e-01 -1.68055901e+37
3.94321537e+00 1.14832914e+00 -1.73133945e+00 -1.49652200e+37
7.50568247e+00 5.48128748e+00 -8.06444645e+00 -1.63120785e+37
6.23854160e+00 3.45999146e+00 -1.42419612e+00 -1.61390226e+37
2.79819036e+00 9.83099043e-01 -1.79560983e+00 -1.61370717e+37
3.92722607e+00 5.28539419e-01 -1.66075981e+00 -1.71512847e+37
4.59177303e+00 2.81054044e+00 -1.29300869e+00 -1.48863810e+37
6.02596664e+00 4.19601774e+00 -8.53628013e-03 -1.42227520e+37
5.92942572e+00 4.15514994e+00 2.99481954e-03 -1.38874977e+37
6.32579803e+00 3.97440219e+00 2.54793931e-03 -1.63006075e+37
6.58308268e+00 3.89776111e+00 -7.31358537e-03 -1.53063258e+37
6.17803955e+00 3.94363379e+00 5.49308024e-03 -1.63006493e+37
6.58052683e+00 3.81981921e+00 -6.10738946e-03 -1.39712336e+37
6.79090834e+00 3.82303953e+00 -1.55672589e-02 -1.64707047e+37
7.04340649e+00 3.75561476e+00 -2.94443443e-02 -1.65492255e+37
7.41049099e+00 3.70674872e+00 -4.64546643e-02 -1.38102965e+37
7.85835266e+00 3.63935280e+00 -6.97474182e-02 -1.50567735e+37
8.34690666e+00 3.51987624e+00 -8.67406949e-02 -1.53832075e+37
8.37857246e+00 3.40895176e+00 -7.99291283e-02 -1.44735972e+37
8.37264633e+00 3.34019065e+00 -7.44184032e-02 -1.61396958e+37
8.50302410e+00 3.25424147e+00 -7.43119493e-02 -1.69720884e+37
7.29546404e+00 3.39451528e+00 -2.11195759e-02 -1.69649185e+37
7.52084064e+00 3.24585032e+00 -2.12138351e-02 -1.48990702e+37
8.44667625e+00 3.11255288e+00 -6.08881041e-02 -1.85531098e+37
7.86539268e+00 3.02878714e+00 -2.36230344e-02 -1.06338240e+37
8.11940575e+00 3.09688497e+00 -4.24590334e-02 -1.67987524e+37
8.36218548e+00 2.92378926e+00 -4.22187969e-02 -1.49678174e+37
8.51177406e+00 2.86853600e+00 -4.40215692e-02 -1.66371700e+37
7.34544992e+00 2.95325160e+00 1.04660699e-02 -1.32242033e+37
7.58207226e+00 2.93531489e+00 -1.36989367e-03 -1.61384268e+37
8.06175137e+00 2.79916143e+00 -1.66826937e-02 -1.28860220e+37
8.43752861e+00 2.80208564e+00 -3.68233174e-02 -1.51408264e+37
7.68725872e+00 2.75160527e+00 7.61890365e-03 -1.63859939e+37
8.11007881e+00 2.70418835e+00 -1.21389898e-02 -2.03821243e+37
8.37800407e+00 2.69968390e+00 -2.54581850e-02 -1.52151094e+37
7.30278015e+00 2.60045910e+00 3.85020785e-02 -1.41370664e+37
7.76225424e+00 2.62705064e+00 1.16271656e-02 -3.90362988e+37
7.93127537e+00 2.49088097e+00 1.50336036e-02 -1.49736879e+37
8.28531361e+00 2.55245996e+00 -9.54358373e-03 -1.87241983e+37
6.49651861e+00 2.62190819e+00 -3.25337744e+00 -1.47228287e+37
7.65543652e+00 2.50622821e+00 2.64876522e-02 -1.51411623e+37
7.92305565e+00 2.45399785e+00 1.60446391e-02 -1.59722315e+37
8.31206894e+00 2.39095688e+00 1.54940248e-03 -1.41318411e+37
7.22767591e+00 2.33156943e+00 5.33656999e-02 -1.76252897e+37
7.62033653e+00 2.32915831e+00 4.19723205e-02 -1.52238930e+37
7.87564611e+00 2.28467751e+00 3.06020100e-02 -1.57171751e+37
8.24332047e+00 2.09752941e+00 2.74976660e-02 -1.64697146e+37
7.56680965e+00 2.18358135e+00 5.66379651e-02 -1.71401801e+37
7.90462351e+00 2.06541514e+00 4.73235361e-02 -1.37193958e+37
8.15254974e+00 1.97778141e+00 4.16595526e-02 -1.53841836e+37
7.13054228e+00 2.13100314e+00 5.52649200e-02 -1.37988978e+37
7.20505571e+00 2.09769988e+00 5.61742336e-02 -1.37177872e+37
8.14601231e+00 1.93559647e+00 4.56315652e-02 -1.50531874e+37
6.58387566e+00 1.96800041e+00 5.41364923e-02 -1.45508250e+37
7.50624752e+00 1.83305228e+00 6.17702119e-02 -1.45556966e+37
7.84532166e+00 1.71224892e+00 6.81376830e-02 -1.60585902e+37
8.10157967e+00 1.69840026e+00 6.54597953e-02 -1.47319368e+37
6.20988035e+00 1.93335688e+00 -4.81577404e-02 -1.63077862e+37
6.58532095e+00 1.91107881e+00 5.39754666e-02 -1.68042907e+37
6.94301605e+00 1.70524764e+00 -4.31545861e-02 -1.32183176e+37
7.79907751e+00 1.64058805e+00 6.91088289e-02 -2.08059569e+37
8.11603451e+00 1.61651146e+00 7.13369921e-02 -1.53890780e+37
7.08922052e+00 1.56546199e+00 6.38833269e-02 -1.45550374e+37
7.69664145e+00 1.47416604e+00 7.03170970e-02 -1.28918900e+37
8.03635597e+00 1.50174820e+00 7.22976625e-02 -1.67150595e+37
6.10731554e+00 1.59118521e+00 5.57828806e-02 -1.70499348e+37
6.20965052e+00 1.69699597e+00 5.63484468e-02 -1.58901435e+37
6.67562199e+00 1.49636340e+00 6.33516908e-02 -1.58021838e+37
6.96610928e+00 1.45294833e+00 6.54562861e-02 -1.54698895e+37
7.14553118e+00 1.38764107e+00 6.75588399e-02 -1.59657285e+37
7.22115088e+00 1.51605129e+00 6.69072345e-02 -1.78041007e+37
7.64673328e+00 1.32979345e+00 7.32833222e-02 -1.50495796e+37
7.81990767e+00 1.27203667e+00 7.53571093e-02 -1.54672426e+37
8.05881310e+00 1.32525766e+00 7.66768008e-02 -1.23051490e+37
5.54492331e+00 1.47710884e+00 -4.52561490e-02 -1.18050685e+37
5.93421078e+00 1.48087931e+00 6.54281229e-02 -1.43934678e+37
6.07595682e+00 1.56113935e+00 5.82176484e-02 -1.73050533e+37
6.22335577e+00 1.45213997e+00 6.06324486e-02 -1.43119958e+37
6.26449490e+00 1.40644288e+00 6.06318004e-02 -1.74750921e+37
6.40040541e+00 1.36883652e+00 6.30954057e-02 -1.33027064e+37
6.67895937e+00 1.39055586e+00 6.52981699e-02 -1.78057892e+37
6.78590488e+00 1.36357760e+00 6.57857582e-02 -1.58086653e+37
7.16484737e+00 1.32776248e+00 6.77593946e-02 -1.55591245e+37
7.55284786e+00 1.16033518e+00 7.15937242e-02 -1.63048833e+37
7.71754694e+00 1.14723337e+00 7.25046247e-02 -1.50548074e+37
7.91255999e+00 1.09675145e+00 7.30148256e-02 -1.54724793e+37
5.93442678e+00 1.41852605e+00 6.57259971e-02 -1.48931908e+37
6.09099579e+00 1.38312125e+00 5.91349788e-02 -1.66368354e+37
6.36295080e+00 1.37046409e+00 6.38591796e-02 -1.65586822e+37
6.39675474e+00 1.35114765e+00 6.36374354e-02 -1.38122740e+37
6.57959652e+00 1.20422029e+00 6.59053251e-02 -1.42243518e+37
6.68361235e+00 1.22863209e+00 6.74558654e-02 -1.58836050e+37
6.97642994e+00 1.19665277e+00 6.83625787e-02 -1.59663978e+37
7.00286484e+00 1.17282116e+00 6.84980378e-02 -1.81406949e+37
7.12387276e+00 1.07790267e+00 6.52546957e-02 -1.53053433e+37
7.35379362e+00 1.04643047e+00 6.69324696e-02 -1.62227636e+37
7.54673243e+00 1.00797653e+00 6.62660971e-02 -1.50521897e+37
7.56839466e+00 9.91251767e-01 6.63151592e-02 -1.32163857e+37
7.74114323e+00 1.10469401e+00 7.17376471e-02 -1.83074632e+37
7.98228598e+00 9.03564036e-01 6.62976056e-02 -1.48922477e+37
2.73586392e+00 3.18292761e+00 -3.29575324e+00 -1.79676923e+37
5.41464520e+00 4.16617060e+00 4.19221111e-02 -1.52199988e+37
5.69817734e+00 4.08825111e+00 2.73288153e-02 -1.68851047e+37
5.34221029e+00 3.96634960e+00 5.19141220e-02 -1.40569141e+37
6.04247618e+00 4.19255066e+00 -4.74340171e-01 -1.37223330e+37
7.25308561e+00 3.53255773e+00 -2.28890443e+00 -1.28061993e+37
4.85301018e+00 2.77209926e+00 9.80818421e-02 -1.46449684e+37
6.17393684e+00 2.56304336e+00 4.21403199e-02 -1.55464150e+37
7.43179417e+00 1.57810891e+00 -3.32083321e+00 -1.83022734e+37
5.14370012e+00 2.30608845e+00 8.75556171e-02 -1.31394900e+37
4.76990318e+00 2.17818427e+00 9.32391211e-02 -1.72203387e+37
5.70175838e+00 7.63494968e-01 -2.73303056e+00 -1.53864552e+37
4.57540989e+00 2.05357957e+00 8.79938304e-02 -1.57236325e+37
4.80049706e+00 2.00864291e+00 8.67096111e-02 -1.43015694e+37
5.02812529e+00 1.94444883e+00 8.50444883e-02 -1.46410741e+37
3.90712237e+00 3.58403587e+00 -1.75918412e+00 -1.36412160e+37
4.04552746e+00 3.29820347e+00 -3.07656431e+00 -1.75513679e+37
5.61038637e+00 3.94640779e+00 3.84625383e-02 -1.40585709e+37
6.82482338e+00 4.62634897e+00 -1.84163988e+00 -1.68026808e+37
6.84360838e+00 2.33185410e+00 -2.13979885e-01 -1.63107234e+37
4.29559517e+00 2.45252681e+00 -5.31223178e-01 -1.25585980e+37
5.91346407e+00 2.28834009e+00 -1.71299979e-01 -1.66449902e+37
4.66814804e+00 1.99024796e+00 -5.02804697e-01 -1.53877799e+37
5.53228331e+00 2.16243792e+00 7.22702816e-02 -1.37268661e+37
6.66543674e+00 9.42580760e-01 -1.77026606e+00 -1.46391105e+37
6.42849112e+00 3.02905607e+00 -3.06265140e+00 -1.54701950e+37
8.91164780e+00 2.59957552e+00 -4.18036222e+00 -1.39712260e+37
5.34075975e+00 2.35045433e+00 -2.06074461e-01 -1.41370588e+37
3.71211171e+00 2.16825247e+00 -1.34692812e+00 -1.45579518e+37
3.82831192e+00 7.99923897e-01 -4.60520458e+00 -1.31372400e+37
7.36235142e+00 2.42305732e+00 -2.85537982e+00 -1.82218296e+37
7.40956545e+00 1.95212531e+00 -9.04976428e-01 -1.41331519e+37
6.76743698e+00 2.10148787e+00 5.36384098e-02 -1.49691294e+37
5.27345037e+00 4.73808765e+00 -3.38058186e+00 -1.44788212e+37
6.71792650e+00 3.84211922e+00 -1.36753118e+00 -1.57161775e+37
7.20509672e+00 3.91735125e+00 -2.16934538e+00 -1.63872882e+37
3.59540486e+00 4.36112356e+00 -2.68391538e+00 -1.64759135e+37
9.01737976e+00 3.63568330e+00 -4.92675114e+00 -1.62266693e+37
6.67853069e+00 1.92525351e+00 -3.12186527e+00 -1.63837134e+37
5.03003407e+00 1.54455566e+00 -2.92447305e+00 -1.53069951e+37
5.18472290e+00 2.48082846e-01 -5.63649845e+00 -1.88890562e+37
7.22960711e+00 1.82268405e+00 -4.02161986e-01 -1.38894714e+37
5.21580935e+00 4.25920391e+00 -1.63712847e+00 -1.57233524e+37
4.57558966e+00 2.67331100e+00 -7.99596548e-01 -1.43074462e+37
5.00430441e+00 2.54592609e+00 -9.82976019e-01 -1.35499908e+37
4.31137180e+00 2.27956724e+00 -8.73046339e-01 -1.40510550e+37
3.58095455e+00 5.10505104e+00 -3.09549260e+00 -1.31411228e+37
6.22230196e+00 3.33908749e+00 -2.63693953e+00 -1.54662995e+37
5.91442156e+00 3.45759702e+00 -3.60154152e+00 -1.30521869e+37
9.45808887e+00 1.46166122e+00 -5.00296021e+00 -1.68075663e+37
3.90725732e+00 9.63289917e-01 -3.12457895e+00 -1.29697630e+37
5.12294579e+00 1.16003811e+00 -1.37629449e+00 -1.49629268e+37
5.76615524e+00 1.64230454e+00 7.09727630e-02 -1.24683603e+37
6.07287836e+00 4.05048513e+00 -3.07530713e+00 -1.59627888e+37
5.04694223e+00 2.62823272e+00 -4.04200697e+00 -1.75493879e+37
7.19423723e+00 1.66608763e+00 -1.57046318e+00 -1.38066989e+37
6.00582552e+00 1.27013314e+00 -9.81877804e-01 -1.73043954e+37
5.22370052e+00 -8.46802443e-02 -3.47736883e+00 -1.48870592e+37
6.40809774e+00 4.05367041e+00 -1.39335108e+00 -1.61380351e+37
5.95611572e+00 1.76498497e+00 -3.91048193e+00 -1.52209939e+37
3.41886091e+00 -3.74712086e+00 -7.60487795e+00 -1.39738209e+37
6.77015305e+00 5.01789665e+00 -2.29910731e+00 -1.74698821e+37
5.71054840e+00 -1.43115568e+00 -1.16610260e+01 -1.73070042e+37
7.69601488e+00 3.22606635e+00 -2.95040198e-02 -1.66322946e+37
8.29145241e+00 2.86415339e+00 -3.25635746e-02 -1.37174614e+37
8.63393211e+00 2.86431980e+00 -3.58130336e-02 -1.53008090e+37
8.94711494e+00 2.57145476e+00 5.82244247e-03 -1.73030453e+37
9.52732849e+00 2.27931881e+00 6.24581203e-02 -1.50538161e+37
9.80805588e+00 2.22311664e+00 4.05138135e-02 -1.34705129e+37
1.00171337e+01 2.22179866e+00 2.30599549e-02 -1.57207347e+37
8.51535988e+00 2.71567392e+00 -3.17278951e-02 -1.43979933e+37
8.95692730e+00 2.51771379e+00 9.19182412e-03 -1.61400596e+37
9.52013206e+00 2.21551228e+00 6.32377118e-02 -1.27175893e+37
9.52162743e+00 2.20188141e+00 6.27659410e-02 -1.28821164e+37
9.93247509e+00 1.96447194e+00 1.13872094e-02 -1.48085105e+37
8.48171425e+00 2.53789067e+00 -1.17651671e-01 -1.55558526e+37
8.75731087e+00 2.31910443e+00 1.23848887e-02 -1.81357739e+37
8.98966789e+00 2.22775364e+00 3.39794792e-02 -1.57181233e+37
9.73297501e+00 1.95752931e+00 2.82699689e-02 -1.42198110e+37
9.89654732e+00 1.91699851e+00 1.35908052e-02 -1.98019041e+37
8.95504951e+00 2.03602171e+00 4.64051515e-02 -1.55581534e+37
9.14501858e+00 2.00646687e+00 6.00554086e-02 -1.73066949e+37
9.76256084e+00 1.82863188e+00 1.55739803e-02 -1.54689032e+37
9.35727310e+00 1.76311910e+00 4.66766022e-02 -1.50469949e+37
9.76610184e+00 1.65391564e+00 3.84709705e-03 -1.68029838e+37
8.85003662e+00 1.84361649e+00 5.39398007e-02 -1.62198316e+37
9.08317471e+00 1.74469447e+00 6.79520071e-02 -1.56373233e+37
9.36561966e+00 1.60172629e+00 3.27573791e-02 -1.61321913e+37
9.70496845e+00 1.42123294e+00 -7.66214868e-03 -1.34656122e+37
8.79718113e+00 1.69784892e+00 6.20055385e-02 -1.70535286e+37
8.96186543e+00 1.64877880e+00 7.07650036e-02 -1.39670035e+37
9.32804012e+00 1.38220298e+00 2.11434662e-02 -1.68883448e+37
9.70372772e+00 1.37411177e+00 -1.12206144e-02 -1.38848876e+37
8.69294071e+00 1.53501558e+00 6.73533976e-02 -1.60497712e+37
9.02340412e+00 1.39236307e+00 4.72393595e-02 -2.90145548e+37
9.30859852e+00 1.26827216e+00 1.45178437e-02 -1.43031869e+37
9.50622749e+00 1.18003893e+00 -5.04067214e-03 -1.53926477e+37
9.53511429e+00 1.19561779e+00 -6.60206843e-03 -1.63038806e+37
8.58243370e+00 1.42837107e+00 6.79043010e-02 -1.64732818e+37
8.97857380e+00 1.33057070e+00 4.64898646e-02 -1.19630520e+37
9.12772369e+00 1.12666917e+00 2.78731138e-02 -1.31394989e+37
9.53299999e+00 9.63093400e-01 -4.66029067e-03 -1.48909471e+37
8.55683041e+00 1.20205736e+00 7.47613534e-02 -1.83856899e+37
8.75388145e+00 1.10466266e+00 5.95300347e-02 -1.52238981e+37
9.12741661e+00 1.04587078e+00 2.85972394e-02 -1.54711634e+37
9.42146683e+00 9.21277046e-01 5.23169059e-03 -1.76376278e+37
9.00110149e+00 8.85131657e-01 4.11224514e-02 -1.40520299e+37
9.27185535e+00 8.28942657e-01 1.89825539e-02 -1.31398171e+37
9.36927700e+00 8.27842891e-01 1.09145865e-02 -1.55581712e+37
8.74045849e+00 8.33249152e-01 4.61724102e-02 -1.08770481e+37
9.03050137e+00 7.58692682e-01 4.01372835e-02 -1.57165083e+37
9.32326698e+00 6.51102185e-01 1.68049932e-02 -1.52206237e+37
9.23521519e+00 4.51783806e-01 2.16281340e-02 -1.69701007e+37
7.93274546e+00 8.05193365e-01 5.98123036e-02 -1.72209941e+37
8.90612221e+00 4.67729717e-01 1.23938462e-02 -1.69818252e+37
9.14851570e+00 3.31325144e-01 7.31036207e-03 -1.45557042e+37
6.25070620e+00 1.31450438e+00 6.40064552e-02 -1.71421475e+37
7.90548754e+00 7.34618962e-01 5.61597496e-02 -1.37223190e+37
8.96612740e+00 2.17856050e-01 -1.17149856e-02 -1.45563380e+37
9.09688377e+00 1.41384542e-01 -1.49825960e-02 -1.56412048e+37
5.69579887e+00 1.38840735e+00 7.04341084e-02 -1.47231571e+37
5.93230963e+00 1.42139590e+00 6.76030517e-02 -1.65521500e+37
6.39591742e+00 1.07368469e+00 6.12344295e-02 -1.62201561e+37
9.15019226e+00 -8.24591890e-02 -3.75774428e-02 -1.56356931e+37
5.71921682e+00 1.27639973e+00 6.61810562e-02 -1.53874491e+37
6.19784927e+00 9.99712408e-01 5.77039346e-02 -1.47202148e+37
6.49476576e+00 1.02486944e+00 5.91923445e-02 -1.51365950e+37
6.86046219e+00 7.35294878e-01 5.15118018e-02 -1.65557057e+37
7.52362251e+00 5.95611334e-01 5.14346361e-02 -1.28843893e+37
7.87655783e+00 2.92772859e-01 2.09021773e-02 -1.49714163e+37
8.40218353e+00 5.91710256e-03 -4.18294482e-02 -1.38031051e+37
8.80259895e+00 -4.99379374e-02 -4.56234105e-02 -1.70558382e+37
9.09692192e+00 -3.03383976e-01 -6.20854869e-02 -1.51339773e+37
6.45013475e+00 4.32989836e+00 -1.20063853e+00 -1.52268529e+37
7.52481031e+00 3.80852509e+00 -1.71074092e+00 -1.57177823e+37
6.26008368e+00 2.37692857e+00 -2.03830099e+00 -1.33020599e+37
6.35987139e+00 1.32628381e+00 -7.83526063e-01 -1.43035444e+37
6.68450928e+00 3.63609099e+00 -7.81066809e-03 -1.47237909e+37
6.76725292e+00 3.41581082e+00 5.30105503e-03 -1.85606308e+37
6.84757519e+00 3.36236620e+00 4.98064328e-03 -1.55516529e+37
7.10707808e+00 3.28708386e+00 -2.82312417e-03 -1.53926781e+37
7.10716343e+00 3.25140953e+00 -3.72781156e-04 -1.43077834e+37
6.49990511e+00 3.11205196e+00 3.56409661e-02 -1.70538328e+37
7.53756857e+00 2.62730885e+00 2.46378444e-02 -1.56428490e+37
6.58422470e+00 2.90107179e+00 4.03043628e-02 -1.80553414e+37
8.38667965e+00 9.90844548e-01 6.15692027e-02 -1.64781623e+37
5.95437956e+00 1.64204252e+00 6.38530850e-02 -1.78164755e+37
6.10541868e+00 1.59724438e+00 5.89510463e-02 -1.58106339e+37
2.90522075e+00 3.21150720e-01 -2.92142558e+00 -1.93839090e+37
7.38037348e+00 4.39541245e+00 -2.17157435e+00 -1.55562051e+37
8.52354908e+00 2.54315138e+00 -4.33675861e+00 -1.43827244e+37
7.49042845e+00 2.38887382e+00 -1.21282935e+00 -1.38067243e+37
8.12249565e+00 3.42731786e+00 -1.32932794e+00 -1.73874772e+37
6.42863083e+00 3.20085907e+00 -2.48053336e+00 -1.76379903e+37
7.28811550e+00 2.01429248e+00 5.97826391e-02 -1.74786935e+37
6.07222080e+00 4.27120256e+00 -2.23414397e+00 -1.54756940e+37
8.26938534e+00 2.85462713e+00 -8.65057373e+00 -1.43856349e+37
8.19674110e+00 2.09841204e+00 -1.25072813e+00 -1.33949330e+37
8.42293549e+00 1.60454762e+00 -1.30396113e-01 -1.57210605e+37
8.47235298e+00 2.67088890e+00 -4.86627847e-01 -1.60588919e+37
1.08968554e+01 1.53966939e+00 -4.97573137e+00 -1.52209432e+37
8.30564117e+00 7.94487953e-01 -2.01504779e+00 -1.55532590e+37
7.13292599e+00 2.53000903e+00 -4.47558355e+00 -1.49711006e+37
4.53081417e+00 2.54992199e+00 -3.86046886e+00 -1.52304239e+37
5.87284088e+00 6.67065978e-01 -1.65260935e+00 -1.58875220e+37
5.81918812e+00 4.55541134e+00 -2.66754365e+00 -1.65570152e+37
7.62969923e+00 3.15533423e+00 -2.38377500e+00 -1.58895021e+37
5.54608393e+00 3.34632635e+00 -1.80221856e+00 -1.70519060e+37
6.07007217e+00 3.44191289e+00 -2.18257403e+00 -1.53818942e+37
1.02923269e+01 -1.44387341e+00 -7.07185555e+00 -1.43797644e+37
6.90924788e+00 3.51847911e+00 -9.78438139e-01 -1.27202045e+37
6.36648035e+00 1.97377336e+00 -5.23587346e-01 -1.66424143e+37
6.10317898e+00 3.39385653e+00 -1.53368568e+00 -1.62292870e+37
7.77154589e+00 2.63873506e+00 -1.94617474e+00 -1.77226580e+37
6.98165703e+00 1.43317604e+00 -4.97563601e-01 -1.80488435e+37
1.46743393e+00 7.12214649e-01 -7.76050711e+00 -1.45556852e+37
7.56806326e+00 -6.31321549e-01 -2.79099536e+00 -1.28889731e+37
8.70079803e+00 2.23320127e+00 -8.44917119e-01 -1.55536140e+37
8.23189735e+00 1.89486694e+00 -2.60867739e+00 -1.35597783e+37
9.21507454e+00 1.53149688e+00 -5.58983183e+00 -1.53861649e+37
7.29161596e+00 3.35455990e+00 -1.28781295e+00 -1.78074042e+37
6.90988922e+00 3.11709571e+00 -2.01581025e+00 -1.82221275e+37
7.96352863e+00 1.05220103e+00 -8.35460499e-02 -1.76334255e+37
3.95724297e+00 1.68131188e-01 -5.07665777e+00 -1.48046150e+37
1.14265156e+01 9.98334169e-01 -9.69134644e-02 -1.64625537e+37
1.12398167e+01 1.09532464e+00 -1.05398759e-01 -1.73037349e+37
1.14455452e+01 9.80049968e-01 -9.58730727e-02 -1.53874478e+37
1.01794672e+01 1.33961737e+00 -5.06433621e-02 -1.51453519e+37
1.05580254e+01 1.07720327e+00 -8.74853954e-02 -1.39673242e+37
1.10680428e+01 8.81186008e-01 -1.13479987e-01 -1.20542987e+37
1.12538261e+01 7.27626801e-01 -1.08972080e-01 -1.57197421e+37
1.03124323e+01 1.17570865e+00 -6.93923607e-02 -1.57184593e+37
1.08444500e+01 8.98452699e-01 -1.08278096e-01 -1.57243069e+37
1.11511173e+01 6.76174819e-01 -1.09041587e-01 -1.60566025e+37
1.12367487e+01 7.21952975e-01 -1.09786920e-01 -1.52988010e+37
1.05638580e+01 8.25868189e-01 -8.38276371e-02 -1.48886691e+37
1.08690147e+01 6.05343938e-01 -1.06628798e-01 -1.56431988e+37
1.11011295e+01 5.66673160e-01 -1.09303720e-01 -1.39722059e+37
1.01872463e+01 7.26095319e-01 -5.24595939e-02 -1.49658766e+37
1.07281027e+01 4.27239448e-01 -9.18335542e-02 -1.48841018e+37
1.09008770e+01 3.54143590e-01 -1.05391599e-01 -1.59643949e+37
1.10796156e+01 3.88383836e-01 -1.07053004e-01 -1.37246071e+37
1.03737125e+01 4.30669010e-01 -6.45168275e-02 -1.06349091e+37
1.06900806e+01 3.49170148e-01 -8.80447999e-02 -1.38852083e+37
1.09556923e+01 2.27224916e-01 -1.06284752e-01 -1.41324965e+37
9.94610119e+00 5.64462721e-01 -3.07261385e-02 -1.77204244e+37
1.04893503e+01 1.77384123e-01 -6.94311485e-02 -1.51339861e+37
1.07234335e+01 1.44371778e-01 -8.75254869e-02 -1.43807469e+37
1.09503946e+01 1.08893543e-01 -1.03846863e-01 -1.67229114e+37
9.88876629e+00 4.78047490e-01 -2.47334465e-02 -1.54783181e+37
1.02072468e+01 1.63958013e-01 -4.56563681e-02 -1.06342930e+37
1.08891954e+01 -7.76427463e-02 -9.78861824e-02 -1.42266424e+37
9.46494675e+00 3.86870861e-01 1.14512192e-02 -1.73952732e+37
1.00831289e+01 1.27727956e-01 -3.50867622e-02 -1.74715110e+37
1.04363823e+01 -7.59084150e-02 -6.22134283e-02 -1.60595790e+37
1.07215195e+01 -2.95359761e-01 -8.06384981e-02 -1.45540740e+37
9.42297554e+00 3.38343531e-01 1.52168497e-02 -1.33066171e+37
9.73924923e+00 1.24668457e-01 -6.85184728e-03 -1.52134970e+37
1.06584759e+01 -4.39657092e-01 -7.36810565e-02 -1.62237245e+37
9.65400028e+00 -1.02369050e-02 -7.48131098e-03 -1.60559497e+37
9.91281319e+00 -2.08076209e-01 -1.91744138e-02 -1.45544036e+37
1.02046919e+01 -3.53409886e-01 -3.85832973e-02 -1.40569306e+37
1.05824947e+01 -6.05214477e-01 -6.55529797e-02 -1.52193548e+37
9.29075623e+00 2.76769567e-02 -1.70670934e-02 -1.41393672e+37
9.63328075e+00 -2.00392008e-01 -2.68179700e-02 -1.42207871e+37
9.90422630e+00 -4.29466099e-01 -4.15432826e-02 -1.06445331e+37
1.01911812e+01 -5.75941622e-01 -4.65606861e-02 -1.55470678e+37
1.03744659e+01 -5.71526051e-01 -5.05063608e-02 -1.68020204e+37
1.04017086e+01 -6.44686401e-01 -5.03009260e-02 -1.61302403e+37
8.97117424e+00 -7.25515261e-02 -3.67021486e-02 -1.60449110e+37
9.22113419e+00 -2.46252269e-01 -4.69869152e-02 -1.34711733e+37
9.38535213e+00 -2.81314939e-01 -4.59524915e-02 -1.32277489e+37
9.80928135e+00 -4.55505639e-01 -4.87603657e-02 -1.49717243e+37
1.01354218e+01 -6.45912588e-01 -5.59516698e-02 -1.47238036e+37
