# .PCD v.7 - Point Cloud Data file format
VERSION .7
FIELDS x y z rgb
SIZE 4 4 4 4
TYPE F F F F
COUNT 1 1 1 1
WIDTH 1045
HEIGHT 1
VIEWPOINT 0 0 0 1 0 0 0
POINTS 1045
DATA ascii
0.40009491 0.21824327 1.5290103 -1.6716981e+37
0.88694837 0.56862622 1.5612154 -1.7711605e+37
2.582442 1.3732046 2.1335066 -1.3375357e+37
0.7760613 -1.3621229 2.2544835 -1.4468707e+37
0.35525046 -1.126087 2.6151824 -1.4968811e+37
1.0343882 -0.48003852 1.6292909 -1.5721376e+37
1.0759179 -0.35392776 1.9285568 -1.4641735e+37
1.5391074 -0.32568186 1.6416457 -1.2554047e+37
2.328506 -0.41763555 2.0983163 -1.4805265e+37
0.30975373 -0.029363327 1.913378 -1.5137907e+37
2.12792 0.61339764 5.7860322 -2.3003401e+37
1.6600814 0.12580592 1.6042426 -1.5469873e+37
1.7224552 0.40210842 2.0646272 -1.9132728e+37
-0.062475112 1.0456634 2.5069709 -1.8055671e+37
1.1584448 -0.91991656 1.1830786 -1.5723963e+37
0.57169246 -1.0656775 1.4211493 -1.6716328e+37
0.53245047 -0.73701998 1.7408385 -1.7313847e+37
0.91278957 -0.20354616 1.6440281 -1.6317254e+37
0.13971104 0.029685898 2.6823538 -1.8876673e+37
1.6201419 0.15790169 1.6178511 -1.6139028e+37
-0.69228549 0.48157346 2.4859859 -1.505383e+37
0.76930334 0.38802267 1.6624536 -1.5633741e+37
1.842181 0.61298306 2.0938348 -1.6216235e+37
1.4040832 0.94072949 2.4015786 -1.4799053e+37
0.06792877 -2.0143486 2.9961717 -1.5635358e+37
1.2948429 -0.87975523 1.5733418 -1.6472294e+37
3.7483379 -3.8953527 8.805173 -1.5216063e+37
1.66403 -0.92196946 1.979492 -1.4554734e+37
1.1672821 -0.65857398 1.5956567 -1.2471943e+37
0.74916103 -0.43828991 1.2162695 -1.4551787e+37
0.30020689 -0.35785118 2.2945783 -1.9053573e+37
0.71811562 -0.28365034 1.478472 -1.6974038e+37
0.95556721 -0.60401774 4.0448704 -1.5971595e+37
1.1402493 -0.34581827 1.7906919 -1.8139692e+37
0.9822784 0.06902258 1.8187127 -1.6475929e+37
0.95945211 0.42485657 3.3546406 -1.4635495e+37
1.4845531 0.35784533 2.5092504 -1.5383199e+37
0.51498905 0.47659045 1.8542466 -1.4641386e+37
1.7556661 -1.6667637 2.9001114 -1.8383726e+37
0.53547262 -0.32730001 2.1411284 -1.505808e+37
-0.76802249 -0.22213897 3.6357472 -1.3139204e+37
1.1081183 -0.23215256 1.5726404 -1.5306639e+37
1.6846201 -0.098650329 1.5889461 -1.4389539e+37
-0.25450072 0.15696031 2.063089 -1.464075e+37
0.71992218 0.41932174 2.3784131 -1.4801677e+37
2.0102832 -0.92098528 0.91459329 -1.7059038e+37
2.056647 -0.92583332 0.9175731 -1.4974031e+37
2.3024585 -0.90974285 0.93250993 -1.9053233e+37
2.6655318 -0.84585639 0.94110947 -1.9059093e+37
2.7449265 -0.8264832 0.94614604 -1.3220288e+37
2.1349444 -0.88123352 0.91999058 -1.3142445e+37
2.4466356 -0.84427098 0.93154688 -1.329228e+37
2.4971544 -0.82457629 0.93036166 -1.5989892e+37
2.4978016 -0.71905452 0.93074654 -1.0654573e+37
2.6875119 -0.74930583 0.94293326 -1.747281e+37
2.7488241 -0.67291956 0.94704573 -1.5300114e+37
2.4127684 -0.67971377 0.92581897 -1.5966062e+37
2.3036753 -0.59346659 0.9282998 -1.4470977e+37
2.4307583 -0.56796291 0.92997448 -1.5931071e+37
2.4967061 -0.5988627 0.93147016 -2.3385991e+37
2.6032895 -0.60238935 0.93771596 -1.6882176e+37
2.4028532 -0.53018665 0.93168446 -1.4849969e+37
2.4800139 -0.54098473 0.93197434 -1.0633824e+37
2.6706009 -0.50094821 0.94276073 -1.6635867e+37
2.4897321 -0.41974321 0.93468771 -1.5304372e+37
2.3494179 -0.34267301 0.93892121 -1.5799576e+37
2.4141441 -0.36091064 0.93715804 -1.0633905e+37
2.4826947 -0.32750199 0.93769207 -1.1718412e+37
2.6502005 -0.34541806 0.94414246 -1.5555881e+37
2.3918336 -0.26132394 0.94145582 -1.0633824e+37
2.5303708 -0.24547047 0.93925973 -1.7137908e+37
2.5681831 -0.26774736 0.94046602 -1.7462056e+37
2.3092971 -0.19653317 0.94466415 -1.5811984e+37
2.4078534 -0.20754407 0.94398296 -1.2177883e+37
2.6545754 -0.15581172 0.94732292 -1.2051028e+37
2.4091491 -0.17083479 0.94435779 -3.987684e+37
2.4601374 -0.11823747 0.94478733 -1.6052045e+37
2.6333642 -0.12515296 0.9459453 -1.4799086e+37
2.5199116 -0.027587857 0.94705147 -1.3636972e+37
2.6589882 -0.0237149 0.94873103 -1.4722505e+37
2.2743399 0.010496204 0.95252152 -1.4888345e+37
2.3371575 0.015686991 0.95136883 -1.8221487e+37
2.440525 0.04185945 0.95095899 -1.7982349e+37
2.5143309 0.026981673 0.94908105 -1.4800685e+37
2.5759547 0.072130372 0.94961085 -1.4396066e+37
2.545529 0.074239405 0.950099 -1.5802838e+37
2.6195325 0.083986603 0.94897564 -1.6467433e+37
2.3687847 0.1997777 0.95718686 -1.3209203e+37
2.4721811 0.13868212 0.95325785 -1.8895239e+37
2.6442787 0.16434946 0.95100769 -1.7720422e+37
2.153248 0.25041746 0.96350399 -1.6391199e+37
2.3741944 0.20676326 0.95742746 -1.0633824e+37
2.4467921 0.23808087 0.95726271 -1.4219159e+37
2.5898478 0.25655327 0.95506975 -1.455244e+37
2.3616979 0.29259462 0.96032019 -1.0633824e+37
1.8170035 0.32726208 0.97202036 -1.5387121e+37
1.8860879 0.375114 0.97367484 -1.6139359e+37
2.5260396 0.3831067 0.9609615 -1.4213627e+37
2.610797 0.40605327 0.95942254 -1.6725469e+37
2.5317877 0.53197798 0.96554393 -1.6393483e+37
2.6035535 0.5441457 0.96457954 -1.4720892e+37
2.8407389 -1.5721944 3.2171329 -1.6052058e+37
0.6256438 -0.72566919 2.3847814 -1.4811459e+37
1.117926 -0.85304624 2.4034966 -1.3307948e+37
1.1888854 -0.67755935 1.7568166 -1.2800997e+37
1.3225103 -0.56408279 1.6942452 -1.5964443e+37
-0.35126582 -0.75264341 3.6403215 -1.4893868e+37
0.44706147 -0.59597942 2.1058142 -1.4804644e+37
2.0327201 -0.98823835 5.540008 -1.7971628e+37
2.3369656 -0.39860404 5.5616759 -1.2891257e+37
0.69505506 -0.11478555 1.9118293 -1.5803141e+37
-0.30382619 0.41106964 2.4113251 -1.7972916e+37
0.1797882 0.32237183 1.5146614 -1.4888968e+37
1.2028126 -1.012695 0.8992481 -1.5721395e+37
1.3435397 -1.0070595 0.90148568 -1.4721829e+37
1.8627214 -0.97352854 0.91073962 -1.4721853e+37
1.1591294 -0.75564944 0.9475888 -1.8807575e+37
2.4091377 -0.75251679 1.2964066 -1.4968184e+37
1.0589844 -0.59380054 0.9570596 -1.6724142e+37
1.4643358 -0.44387027 0.9115058 -1.7554911e+37
-0.027756236 -0.05510777 2.4289123 -1.888089e+37
0.84853676 -0.002125318 0.94017937 -1.7546121e+37
0.92839728 0.010536911 0.93061271 -1.3469517e+37
0.93837482 0.021231548 0.9314799 -1.5636648e+37
0.079471418 -0.2987197 2.0994027 -1.7144102e+37
0.5344108 -0.12262387 2.1570963 -1.880757e+37
0.62441618 0.17957245 1.4298609 -1.513822e+37
1.3875244 0.30081715 1.7753626 -1.4475277e+37
0.59093188 0.76380043 2.3478773 -1.3558176e+37
2.5377826 -0.83700096 0.85413453 -1.7720086e+37
1.2199936 -0.92422943 1.8248669 -1.8479182e+37
1.1850526 -0.40808632 0.90833544 -1.4804611e+37
0.82452994 0.84408797 2.2744932 -1.3471149e+37
0.60418497 -0.19787765 1.4271091 -1.7055502e+37
1.0537099 0.44631263 1.6401737 -1.2052965e+37
0.94308052 -2.8822901 3.8304322 -1.6056317e+37
2.0500048 -0.88640788 1.2037801 -1.3049233e+37
1.1183097 -1.0781843 2.4363348 -1.4721532e+37
1.0012386 -0.53623994 3.0579777 -1.6633897e+37
1.6987116 -0.21329792 1.6219149 -1.597059e+37
1.461659 0.8064345 2.2296566 -1.6881867e+37
2.2333631 -0.24396788 2.1968589 -1.4138044e+37
0.44153217 0.027679636 1.9501815 -1.4716962e+37
-0.23263309 0.32209329 2.1182461 -1.5219629e+37
2.5600239 2.2567653 3.3551711 -1.6888686e+37
1.925012 -1.5182014 1.6389223 -1.2384957e+37
2.1497784 -1.7700278 3.4174441 -1.613935e+37
1.2447399 -0.040822376 1.7051968 -2.0885158e+37
1.6024714 -0.01621655 0.94350173 -1.6808892e+37
2.7480575 0.78935161 3.2677903 -1.4716309e+37
0.95891942 0.32624831 1.8652791 -1.7384521e+37
1.4980446 -0.35635496 2.1861019 -1.4143907e+37
1.1742555 0.17012824 1.298395 -1.5392011e+37
1.5256027 -1.2547083 1.3166848 -1.7303082e+37
1.6738516 -1.3612059 1.5457517 -1.4222739e+37
1.7801245 -0.93336721 1.0327519 -1.771165e+37
1.802134 -2.0456427 3.8187834 -1.8884464e+37
1.339706 -0.71355504 2.3975762 -1.5556833e+37
2.4855628 0.070967951 1.4519797 -1.7139563e+37
0.91323211 0.20661062 1.340325 -1.4725109e+37
0.5898181 -0.8883063 1.7625739 -1.4897781e+37
1.8300305 1.1462787 2.7404322 -1.5056133e+37
1.3590341 -1.3949599 2.1836051 -1.4725133e+37
1.4558465 -1.2044417 1.930322 -1.6303239e+37
1.4449477 -0.69845935 1.116162 -2.2508166e+37
0.10428111 -0.96087293 2.2218295 -1.4553405e+37
1.6233002 1.2625978 3.1027378 -1.7638653e+37
-0.22614965 -1.3984212 2.7441084 -1.5310888e+37
1.447893 -0.62234503 1.5870723 -1.5305035e+37
0.59606762 -0.44623181 1.7388168 -1.4638165e+37
0.75498247 -1.4642107 2.1437952 -1.5550351e+37
1.6571414 -0.97685988 1.4543027 -1.8048177e+37
2.1009551 -0.94345635 1.8172691 -1.3966333e+37
1.1300592 -0.88577104 1.8990596 -1.2805557e+37
2.30279 -1.0702327 2.9333066 -1.5468581e+37
1.7183304 -0.43183281 2.1587973 -1.6381087e+37
0.27435102 0.27852041 2.0325273 -1.4554101e+37
1.6768953 -0.77874915 1.6159585 -1.5147616e+37
-0.78469953 -0.10832944 2.7008537 -1.2220424e+37
1.2547452 0.0082735161 1.1388756 -1.6054e+37
1.5183527 1.1011198 2.4283314 -1.6969799e+37
1.8493187 -0.30037355 1.7756959 -1.5556541e+37
0.098125481 1.9329768 4.3067793 -1.7559146e+37
0.81277923 -2.1997378 2.4987115 -1.7052869e+37
1.2880288 -1.1168869 1.9347961 -1.7217741e+37
2.9497187 0.060387387 2.6391231 -1.5550987e+37
1.6427204 2.7364084 6.1690563 -1.7057742e+37
2.6691848 -0.84006553 0.93602484 -1.8313329e+37
2.9889041 -0.73641387 0.95390106 -1.0633824e+37
3.1127357 -0.68047763 0.96008004 -1.6137413e+37
3.5596558 -0.47084956 0.99344735 -1.4973708e+37
3.3940364 -0.45462831 0.97573526 -1.0654573e+37
3.6325097 -0.43257322 1.0007596 -1.4470673e+37
3.6551572 -0.40492047 1.0023498 -1.2634852e+37
2.9833631 -0.5583995 0.95367799 -1.5638304e+37
3.0598224 -0.51052811 0.95778638 -1.3724631e+37
3.2101036 -0.45503541 0.96640353 -1.8815373e+37
3.3231748 -0.43433492 0.97192215 -1.0633824e+37
3.3865554 -0.35058794 0.97608372 -1.0633824e+37
3.3875639 -0.33660126 0.97550506 -1.8140342e+37
3.21232 -0.27913646 0.96637427 -1.5470533e+37
3.6048051 -0.18816876 0.98983803 -2.0049513e+37
3.1114051 -0.26433012 0.9621335 -1.3557475e+37
3.2361232 -0.16575929 0.96890174 -1.0633824e+37
3.2703407 -0.21024496 0.97053449 -2.8170122e+37
3.3786453 -0.15652173 0.97551709 -1.3305305e+37
3.2360284 -0.14608354 0.96938582 -1.0633985e+37
3.3536721 -0.039235551 0.97657892 -1.4979599e+37
3.1184921 -0.049027421 0.96585469 -1.6465178e+37
3.3368102 -0.021898503 0.97606375 -1.513433e+37
3.4155576 0.032257176 0.98063057 -1.4805586e+37
3.4988401 0.068657303 0.98026602 -1.5807353e+37
2.9954864 -0.00097231981 0.96094158 -1.4138997e+37
3.2015646 0.082508385 0.97186419 -1.7777329e+37
3.4131237 0.1014618 0.98014814 -1.4057589e+37
2.8021779 0.023854919 0.95271318 -1.5053857e+37
3.2010975 0.11207223 0.97223097 -1.0633827e+37
3.3075391 0.18353731 0.97823555 -1.5811928e+37
3.4249961 0.24877235 0.97927011 -1.2888976e+37
3.1553435 0.21128215 0.97251913 -1.9863939e+37
3.2950101 0.30196932 0.9788646 -1.4477516e+37
3.3714364 0.35564441 0.97836716 -1.6055313e+37
2.829638 0.23552531 0.95808564 -1.3218006e+37
2.9770431 0.27747337 0.96586292 -1.6386346e+37
3.3090002 0.45250038 0.97805869 -2.0881875e+37
3.020105 0.35601085 0.96884069 -1.6391214e+37
3.101145 0.45609683 0.97435385 -1.6969135e+37
3.1160647 0.46157336 0.97470804 -1.6722212e+37
3.2840547 0.45050935 0.97886219 -1.4722827e+37
3.2435294 0.57411997 0.97716552 -1.7552968e+37
2.6274221 0.37959716 0.95678513 -1.4560266e+37
2.813116 0.44785758 0.9605106 -1.5640561e+37
2.9985364 0.51945135 0.97060192 -1.0827881e+37
3.0870035 0.55389216 0.97594041 -1.5806068e+37
3.2263671 0.62069355 0.97704722 -1.4642038e+37
2.5509278 0.48173152 1.0240569 -1.6719963e+37
2.6205042 0.47639115 0.96066842 -1.8480457e+37
2.731035 0.49222949 0.95914187 -1.5475707e+37
2.8072812 0.5212892 0.96215196 -1.3555525e+37
2.8585494 0.60347807 0.96554017 -1.6306536e+37
3.0219396 0.66446287 0.97431618 -1.4142301e+37
3.1290868 0.66815274 0.9767582 -1.9216483e+37
2.3248614 0.47957666 0.96762683 -1.6054664e+37
2.6835888 0.62531481 0.96525532 -1.5722014e+37
2.7681792 0.63115712 0.96307974 -1.6300307e+37
2.8614265 0.65493614 0.96783223 -1.8384083e+37
3.1671523 0.79591952 0.97553314 -1.5301755e+37
1.6390363 -0.71939109 1.4801675 -1.897212e+37
1.8372684 -0.94020972 1.9447959 -1.6310413e+37
3.108057 -0.73540763 3.5824642 -1.5556206e+37
0.52470669 0.092648083 2.036224 -1.4558033e+37
2.1496731 -1.0036116 0.92867123 -1.1804414e+37
2.2338594 -0.99579119 0.93268239 -1.3471142e+37
2.244997 -0.98210063 0.93252092 -1.2803611e+37
2.3379535 -0.94119384 0.93496267 -1.9298871e+37
2.1995544 -0.90686986 0.9248071 -1.4058871e+37
2.1994658 -0.89706092 0.92429532 -1.3895002e+37
2.2538689 -0.13374484 0.94684415 -1.7221012e+37
1.7435153 -0.17771693 0.93636283 -1.6558315e+37
1.7850066 -0.057900555 0.94554114 -1.6721848e+37
1.8854827 0.079566116 0.95715583 -1.7883968e+37
1.7930483 0.12100314 0.95745053 -1.5212802e+37
1.8150594 0.19012934 0.96246199 -1.3221319e+37
0.44857416 -1.1323916 5.1085611 -1.5301751e+37
2.2904569 -0.85329887 0.9263846 -1.5652621e+37
2.3947947 -1.1883216 1.707932 -1.5881327e+37
-0.11104501 -1.3041519 2.9247614 -1.7804163e+37
3.310527 -1.3712569 6.1364627 -1.3970555e+37
1.89398 -1.2126964 5.9173025 -1.5966379e+37
-0.53773735 -0.35690573 3.2665949 -1.6389919e+37
0.0034498817 -0.20892307 2.2978843 -1.488933e+37
1.4863517 -1.2852636 1.8710155 -1.5059707e+37
3.9308208 -0.86562862 5.3978877 -1.6225075e+37
3.415354 -0.30378586 2.0711559 -1.7484847e+37
2.9059155 -0.32878636 2.6320867 -1.4727079e+37
1.1328988 -0.60032409 2.0295556 -1.5390374e+37
1.054411 -0.43806422 2.3173948 -1.5051872e+37
3.7152032 0.72492924 2.9702378 -1.5134642e+37
2.4007204 0.57488362 1.2640784 -1.5142477e+37
1.840254 -1.140408 2.6832274 -1.5389733e+37
2.593609 -1.6287759 2.3657384 -1.4890612e+37
1.872898 0.90570087 1.8227423 -1.4138381e+37
1.8778838 -1.4988504 1.9934438 -1.9053558e+37
2.5982885 -0.8646444 1.5077347 -1.5052235e+37
2.1500048 -1.3761933 2.9620351 -1.3553233e+37
3.2417782 -0.55170087 2.3468973 -1.8805967e+37
2.8527 0.15975429 1.7288373 -1.4056587e+37
1.7408333 -0.16885885 1.1244215 -1.7139516e+37
2.4046152 0.77893927 3.631194 -1.7721412e+37
3.0609225 1.0541809 2.3629944 -1.7969011e+37
0.95530208 -3.0097026 4.6256917 -1.4809498e+37
2.4413774 -1.2006292 2.9281171 -1.4300612e+37
0.78676963 -1.7089573 4.2015238 -1.3885888e+37
2.1216092 -0.48024693 1.4524416 -1.3884566e+37
1.5227921 -0.27565114 2.0347746 -1.6806916e+37
2.7242001 0.38579753 1.1046399 -1.3886247e+37
2.2453809 -1.1974432 2.2405689 -1.5717813e+37
2.6891361 -1.4759818 2.3500221 -1.522096e+37
2.8414969 -0.9648295 1.8516199 -1.3891109e+37
1.8675564 -1.1951564 1.8003196 -1.7562765e+37
3.6090277 -0.84645765 2.6807915 -1.6137716e+37
2.5106777 -0.54952696 2.3966002 -1.6963612e+37
2.8997416 -0.1812385 0.95425852 -1.3888175e+37
1.269158 1.1557595 6.9916192 -1.5301089e+37
2.5060581 0.6514042 1.7485917 -1.7712941e+37
1.6374482 0.50886212 2.2269666 -1.4146515e+37
3.3312051 -0.93153213 1.7391302 -1.4890633e+37
3.5990736 -0.70662365 2.1651159 -1.3889135e+37
2.641996 -0.61116486 1.3165399 -1.5638631e+37
2.5143288 -0.42986809 3.4618748 -1.463452e+37
2.585483 -0.027011444 1.4817565 -1.4305488e+37
1.4854558 -0.17706853 1.8098027 -1.5712566e+37
2.2931543 0.4654171 1.9256863 -1.5303712e+37
2.4427008 0.38796272 1.3896815 -1.3808026e+37
3.0987587 0.73785905 1.7449601 -1.5797959e+37
2.1777672 0.73289209 1.841156 -1.7889831e+37
2.3345809 -0.30301807 1.3644905 -1.7222286e+37
2.5763534 -1.1305251 1.7201945 -1.3305315e+37
1.5697148 -0.99852602 2.0790309 -1.4222104e+37
3.1130151 0.14912223 1.2023753 -1.938419e+37
2.3633359 0.15699634 2.1230106 -1.4968169e+37
2.7187005 0.37538823 1.8927525 -1.5048946e+37
1.4369541 0.67612207 2.2797681 -1.8050109e+37
2.8552446 -0.68915718 1.0911444 -1.3310224e+37
3.0178867 0.054647784 2.4847031 -1.4139352e+37
3.3242617 0.14636802 3.0928308 -1.5644162e+37
2.7382535 0.25897419 4.0002238 -1.688673e+37
2.940011 0.21479239 1.6920128 -1.563765e+37
4.5861105 2.5432187 6.653733 -1.6055004e+37
-1.7290111 0.70810387 6.2308995 -1.7133373e+37
3.3391997 -0.51626553 0.97360747 -1.455179e+37
3.2986595 -0.52914847 0.97253321 -1.505224e+37
3.4935062 -0.39284679 0.98707431 -1.4972423e+37
3.5496809 -0.34518057 0.992747 -1.5807078e+37
3.8022681 -0.11958069 0.99818842 -1.6563566e+37
3.9605054 0.011006223 1.0081339 -1.5143771e+37
3.967628 0.0075472084 1.0089114 -1.4135138e+37
3.8428717 0.01380623 1.0026284 -1.5220662e+37
4.0421832 0.149423 1.0150326 -1.6466146e+37
4.0895602 0.18916587 1.018841 -1.5639275e+37
4.3313097 0.30951108 1.0326707 -1.7805784e+37
4.3749394 0.37971644 1.0360874 -1.8470056e+37
3.9416345 0.10449154 1.0095991 -1.4465459e+37
4.271243 0.35815123 1.0296217 -1.2969118e+37
4.3727291 0.39440976 1.0363166 -1.7639652e+37
3.8016412 0.18088302 0.99841148 -1.3474439e+37
3.8973445 0.25145279 1.0036669 -1.7882354e+37
3.9666901 0.30362477 1.0076576 -1.5638304e+37
4.1355293 0.33877878 1.020231 -1.4061132e+37
4.2963174 0.51258219 1.0262443 -1.2807856e+37
3.8659532 0.2899675 0.99992543 -1.6303564e+37
4.0392068 0.45150034 1.0082929 -1.5059069e+37
4.247766 0.56894119 1.0212098 -1.6719924e+37
3.7926165 0.3898699 0.99049664 -1.5398166e+37
3.8931275 0.44898513 0.99661492 -1.5388737e+37
4.0036501 0.46273503 1.0053492 -3.2025993e+37
4.0822011 0.50996786 1.0097335 -1.3473439e+37
4.1230689 0.62753866 1.008882 -1.7219368e+37
4.0766002 0.65476782 1.0040666 -1.6719576e+37
4.0796996 0.69688234 1.0027257 -1.614e+37
3.7203683 0.33655756 1.8161898 -1.7966385e+37
3.6879485 0.48755292 0.97907968 -1.4554078e+37
3.7677084 0.53305652 0.98361055 -1.5148338e+37
3.9364804 0.6538851 0.99311114 -1.3555215e+37
3.5751209 0.52188996 0.9757211 -1.3641892e+37
3.8443643 0.63086932 0.9871643 -2.060266e+37
3.9287102 0.76964673 0.98880804 -1.5715847e+37
3.9870291 0.79223999 0.99197966 -1.4979508e+37
3.5716497 0.60007038 0.97508003 -1.588426e+37
3.6211583 0.61659514 0.97494998 -1.3558445e+37
3.6884279 0.63439014 0.97423338 -1.6558986e+37
3.5360684 0.64347613 0.97494095 -1.7470568e+37
3.5234193 0.7641699 0.97305196 -1.5554574e+37
3.7148107 0.90933942 0.97102623 -1.3472782e+37
3.86948 1.0108407 0.97536604 -1.5971273e+37
3.3519317 0.74810021 0.97463971 -1.5313139e+37
3.5444046 0.79837955 0.97285854 -1.7469886e+37
3.6019913 0.83976317 0.97229135 -1.277305e+37
3.6644487 0.89975632 0.97119067 -1.821593e+37
3.7982692 1.0455911 0.97028191 -1.6487942e+37
3.2889766 0.71758889 0.97375106 -1.6136779e+37
3.3843565 0.82787088 0.97246333 -1.7470877e+37
3.5484695 0.95325423 0.97101331 -1.0633905e+37
3.677911 1.0608559 0.96887403 -1.5640253e+37
3.5258985 1.0504816 0.969796 -3.8133539e+37
3.6472736 1.0736446 0.97018531 -1.6132193e+37
3.7161307 1.1157501 0.97022494 -2.0469768e+37
3.2117679 0.92868354 0.97308582 -1.3726568e+37
3.4180066 1.0826014 0.96952492 -3.1117922e+37
3.5536113 1.1718226 0.96804161 -1.4053663e+37
3.6562311 1.1775619 0.96793117 -1.3388732e+37
2.3986166 0.42973295 0.96377905 -1.5556213e+37
2.4609145 0.47465229 0.96373901 -1.6802984e+37
3.2246524 1.0086299 0.97086571 -1.471436e+37
3.3339123 1.0826439 0.96953598 -1.3801196e+37
3.4123873 1.172652 0.96860335 -2.1198236e+37
2.6084276 0.97243355 1.4057928 -1.4053649e+37
2.7921994 0.8195866 0.96830732 -1.3726217e+37
2.8777433 0.85972215 0.96958819 -1.5805431e+37
3.0579231 0.99185868 0.97201547 -1.5634737e+37
3.2427865 1.0935751 0.97052426 -1.8212073e+37
3.3252819 1.1254343 0.96918715 -1.5305052e+37
3.4012012 1.1720063 0.9684177 -1.0855812e+37
3.6055666 1.3213358 0.96607466 -1.5969969e+37
3.0644254 -0.60357783 1.6992956 -1.6807206e+37
2.6507993 -0.19975541 2.1391942 -1.6636511e+37
0.81238073 0.98064146 4.2514078 -1.6384676e+37
2.8237419 2.9117744 6.3996176 -1.2967474e+37
2.3799301 1.4752422 3.1535261 -1.6888361e+37
3.2064566 -0.63220307 0.96564342 -1.6218843e+37
3.1083122 -0.65618188 0.96015721 -1.6223103e+37
3.2363317 -0.54748343 0.96830966 -1.6468068e+37
3.2084081 -0.45460222 0.96632969 -1.3301743e+37
3.2669142 -0.38838142 0.97060937 -1.5051569e+37
2.913719 -0.59187165 0.95022859 -1.9203098e+37
3.3798306 -0.15571599 0.97631053 -1.5313858e+37
3.729109 0.26600693 0.98948149 -1.3558437e+37
3.6391637 0.34777556 0.97981435 -1.5469841e+37
2.8575157 -0.17532284 1.0126042 -1.9043783e+37
3.4086545 0.62596549 1.7210036 -1.5057426e+37
2.3359007 -0.0032253246 0.94922219 -1.6309737e+37
2.250973 0.087716393 0.95475249 -1.5222899e+37
2.3030235 0.10995756 0.9541391 -1.5223225e+37
2.3754053 0.20068891 0.95593951 -1.3974167e+37
2.5254333 0.32071119 0.95678006 -1.6802995e+37
2.1973737 0.1178623 0.95698028 -1.6140672e+37
2.4534834 0.32584865 0.9579785 -1.6809525e+37
3.0263435 0.083975298 2.5195579 -1.922169e+37
1.8109446 0.050906708 1.7507266 -1.5723003e+37
3.0075528 -0.417186 0.95493764 -1.4882454e+37
2.7110517 0.82727617 2.2207863 -1.4221448e+37
2.1311999 -2.5758418 3.2449802 -1.5389082e+37
2.7372067 -0.18971521 2.1165221 -1.6876328e+37
1.6456001 0.20184496 2.265364 -1.9139885e+37
3.586739 -0.12169444 0.98730429 -1.6049142e+37
3.7378385 0.50050874 1.6045173 -1.5881674e+37
4.0063373 0.61438422 2.0369624 -1.6467084e+37
3.6829451 0.56785442 1.6392359 -1.355324e+37
1.8248787 -0.31007401 2.209093 -1.7724963e+37
2.4766295 0.60616116 2.2429959 -1.5884931e+37
2.8769884 0.33913588 0.960744 -1.5385829e+37
3.0705869 -0.75292294 3.4380799 -1.7881689e+37
2.9315284 0.75319652 1.729044 -1.6389584e+37
3.6712406 -0.19346678 1.8712378 -1.4563199e+37
2.5535488 -0.80093635 2.2171431 -1.4808175e+37
3.3728383 0.61389225 0.97499463 -1.7054801e+37
2.7959366 0.68503099 1.7919386 -1.8974392e+37
3.3687366 1.2559369 2.5033287 -1.5143102e+37
2.2189387 0.46024062 1.9273268 -1.4557631e+37
2.0537906 0.30011297 1.5433168 -1.3637288e+37
2.9861393 -0.96993019 1.5613638 -1.6139372e+37
3.2571543 -0.90971114 1.8026518 -1.6381103e+37
4.1943857 -0.47639681 3.5615694 -1.5640885e+37
3.1575061 -0.57661224 2.4149935 -1.496851e+37
4.5501984 0.11202987 5.0842478 -1.6885749e+37
3.6390146 0.25233983 2.5223439 -1.546856e+37
2.1456816 -0.38892732 1.8785439 -1.5136568e+37
1.7338457 -0.035121264 2.4037583 -1.6722191e+37
3.10582 1.0280478 2.0608691 -1.8560321e+37
1.5980749 0.11936146 2.2972875 -1.3890761e+37
2.1892041 -0.49809927 1.9608982 -1.5472164e+37
2.9657472 1.2877185 3.0910308 -1.5299484e+37
3.4874003 -0.250461 1.248353 -1.3636006e+37
3.1309364 -1.0977826 3.8848508 -1.314181e+37
4.0722766 0.31035595 1.9217238 -1.4635537e+37
4.5789544 0.96718932 8.3957955 -1.5477355e+37
2.0605759 0.11315229 2.0166677 -1.4387284e+37
2.2612888 0.51812635 2.0672574 -1.3638949e+37
2.9119463 0.56543219 1.0595371 -1.6384688e+37
2.944172 -0.010319845 1.4120245 -1.305869e+37
1.6961044 0.75370586 1.9727628 -1.4889949e+37
3.0875342 -0.062248056 1.1489183 -1.713529e+37
2.1086539 -0.50163449 1.9703144 -1.4140641e+37
0.46585558 -2.5585061 11.294479 -1.7219368e+37
2.3581948 -0.45833467 2.3447952 -1.6555058e+37
2.6207985 -0.047716931 1.9572616 -1.6134834e+37
3.4812745 0.50095206 1.2893828 -1.7212849e+37
4.5219353 1.5898969 3.9549512 -1.2969431e+37
3.6243457 -0.34095033 1.4475234 -1.5219999e+37
2.6832684 0.34170706 1.1927552 -1.6800091e+37
4.1810377 0.44316091 1.0195462 -1.9048688e+37
4.4576996 0.80943452 1.0222127 -1.3974183e+37
3.9432023 0.24565639 1.0070895 -2.0806904e+37
4.0428705 0.45842961 1.0080756 -1.6299328e+37
4.1098911 0.53330389 1.0108809 -1.4391826e+37
4.2184779 0.55723452 1.0185361 -1.6384033e+37
4.5330983 0.9765561 1.0048215 -1.2473252e+37
4.0383473 0.44446117 1.056327 -1.2804918e+37
4.4119098 0.89156802 1.0163266 -1.8058244e+37
4.3845755 0.98496692 1.0082162 -1.5559473e+37
4.5326347 1.1535027 0.99005059 -1.0633824e+37
4.6369734 1.2116821 0.98263411 -1.4641041e+37
4.6827015 1.3099911 0.97279015 -2.0808889e+37
4.3908753 1.018983 1.0050198 -1.4972399e+37
4.4578777 1.1226953 0.99430745 -1.0675091e+37
4.4818489 1.1921526 0.98931973 -1.0633824e+37
4.6072771 1.3828508 0.96750149 -1.2802277e+37
4.2427381 0.99519903 1.0059321 -1.6385666e+37
4.4274339 1.2332607 0.98458894 -1.0633824e+37
4.4220317 1.2715544 0.98173226 -1.7467612e+37
4.3244375 1.1734576 0.99289021 -1.7466961e+37
4.3835929 1.3437285 0.97693821 -1.4230539e+37
4.4519737 1.3472968 0.97456804 -1.4471015e+37
4.20372 1.2286976 0.98999085 -1.4968496e+37
4.2746279 1.3122051 0.98203296 -1.0633824e+37
4.4600342 1.4718767 0.96968029 -1.5387108e+37
4.089902 1.1994034 0.98696247 -1.5554245e+37
4.2002272 1.3222099 0.98159679 -1.3375357e+37
4.1152062 1.3722444 0.97919065 -1.6637817e+37
4.1451277 1.4443371 0.9717291 -1.0633824e+37
4.2115893 1.4500608 0.96993825 -1.5472147e+37
4.2962006 1.5895903 0.97624755 -1.463584e+37
3.9833558 1.352992 0.9733718 -1.2976258e+37
4.1199968 1.4904495 0.96844396 -1.4815353e+37
4.1388674 1.5398958 0.96592099 -1.40504e+37
3.9554709 1.4095991 0.96914172 -1.6138739e+37
4.0457611 1.5128971 0.96770657 -1.2176119e+37
3.9055272 1.4169772 0.96582685 -1.6473603e+37
3.9774403 1.6023274 0.96625532 -1.2136397e+37
4.1360219 1.7243114 0.98279842 -1.6474922e+37
3.9598261 1.6534592 0.9691931 -1.4550495e+37
4.1072262 1.8195985 0.98336086 -1.6299972e+37
3.6135592 1.4191693 0.9676518 -1.5552957e+37
3.6681081 1.4818951 0.96799049 -1.6471323e+37
3.7793177 1.6212158 0.97195253 -1.3636645e+37
3.805236 1.7394343 0.98431241 -1.5573316e+37
2.9135421 0.81522113 0.97002341 -2.2163461e+37
3.0569496 0.98929277 0.97060916 -1.7305989e+37
3.1249101 1.0898967 0.96991884 -1.3723322e+37
3.2245568 1.105375 0.96928466 -1.2313632e+37
3.7155058 1.7146953 0.9812747 -1.4640726e+37
3.8506834 1.831824 0.99377965 -1.4720229e+37
3.8648657 1.9038029 0.9977077 -1.8306199e+37
2.7519361 0.71426948 0.96485817 -1.6048149e+37
2.8763456 0.86060738 0.96908362 -1.6804978e+37
3.1891587 1.2839747 0.9737944 -1.7392667e+37
3.2154877 1.3144304 0.97411865 -1.380608e+37
3.6995147 1.7736676 0.98871341 -1.0633827e+37
3.7919725 2.0124366 1.0127661 -1.3383842e+37
3.8563427 2.0022982 1.006087 -1.3981668e+37
2.7293976 0.82866528 0.96994071 -1.872646e+37
2.7588309 0.87232935 0.97054611 -1.6888043e+37
2.8065325 0.95696233 0.97239916 -1.9394332e+37
2.9244574 1.026475 0.97245225 -1.6727741e+37
3.0128992 1.1583549 0.97491002 -1.6722537e+37
3.1992313 1.324613 0.97479978 -1.530698e+37
3.3869054 1.5274839 0.97692764 -1.6475925e+37
3.3853522 1.6086228 0.97986444 -1.3472786e+37
3.4638501 1.6216946 0.97837318 -1.3218324e+37
3.4809884 1.6909373 0.98090197 -1.6882813e+37
3.5551649 1.8412046 0.99754714 -1.430387e+37
3.8079085 -1.0665057 2.5373791 -1.6477566e+37
3.7007667 -1.7456699 3.6743561 -1.4800698e+37
3.9052445 -0.78721364 2.6995693 -1.9383895e+37
3.563575 0.31520681 1.9030566 -1.3975473e+37
3.756291 -0.077394682 0.99642375 -1.2386262e+37
3.8441642 0.012803668 1.0023404 -1.7461767e+37
3.5436105 0.03426 0.98311114 -1.6970126e+37
3.689558 0.3727727 1.0372665 -1.6222409e+37
3.3807572 0.10781251 0.98076027 -1.3219968e+37
3.1703237 0.36776538 0.97533329 -1.5981367e+37
3.7639112 1.0482483 1.9348269 -1.7214823e+37
3.0227989 0.362588 0.96823002 -1.5641247e+37
3.5492155 0.8967168 0.97102521 -1.2971719e+37
3.0245581 0.43060204 0.96884389 -1.6549193e+37
3.0937691 0.60141461 0.97419875 -1.3634698e+37
2.892742 0.52565081 0.96420771 -1.5396255e+37
2.9080059 0.60500341 0.9661425 -1.6635227e+37
1.4280635 0.69301668 2.4706424 -1.7883354e+37
4.1958499 -1.6742758 4.025132 -1.6470381e+37
2.3115204 0.077155907 3.4463584 -1.4557636e+37
2.3146108 0.74611567 2.1817297 -1.7054173e+37
3.7566093 -0.64664704 1.4614223 -1.5052532e+37
4.1183587 1.7446463 1.752478 -1.5972224e+37
2.5730879 0.34639687 2.013129 -1.8638844e+37
1.2898989 -0.14902156 3.2665701 -1.6304573e+37
4.3777753 0.33005999 1.7339335 -1.4810786e+37
4.1009792 0.11305635 2.0716685 -1.8885144e+37
3.8051458 1.5415844 1.4959956 -1.4556664e+37
1.9876566 1.3686905 2.4635196 -1.5467292e+37
2.0170709 -0.19823752 2.8428192 -1.5054146e+37
1.6856989 0.92839628 2.8782562 -1.4806226e+37
4.7363224 0.2727824 2.9508864 -1.4384334e+37
2.9323912 0.59854682 1.9331145 -1.7055775e+37
3.2769164 -0.33345201 1.7070006 -1.389825e+37
4.2814556 -0.029916905 3.4333247 -1.5218029e+37
2.3806597 1.3624684 2.3291105 -1.3391652e+37
3.1427719 1.4334188 1.4121412 -1.65541e+37
3.1238606 2.0302001 2.0203461 -1.6052376e+37
2.3053802 1.0853462 1.8969351 -1.7057124e+37
4.0007181 0.19115963 2.4983934 -1.4558311e+37
2.8719649 -0.49316482 3.5079749 -1.5390703e+37
3.6277384 0.47682368 2.1929943 -1.705742e+37
3.740409 0.91731505 2.9748884 -1.7060044e+37
3.7979717 0.017446756 1.7203292 -1.7218371e+37
4.531783 0.71339446 3.2746596 -1.5548046e+37
3.5045091 -0.21975206 3.8493695 -1.4220156e+37
3.3572014 0.13305374 4.8138591 -1.6307837e+37
3.5550961 1.0790184 2.9800915 -1.5809987e+37
3.9153751 1.5343571 2.2250732 -1.5220643e+37
2.9404281 0.45616455 1.5239842 -1.6054662e+37
2.7410972 1.0438653 2.0782753 -1.5717155e+37
3.2859206 1.1190333 1.2585819 -1.7054846e+37
3.1607769 1.5462872 1.9275484 -1.7718131e+37
3.9875753 1.2455722 2.2244201 -1.4056591e+37
3.3988125 0.25283178 2.0705088 -1.6219849e+37
4.0439813 -1.0230584 2.4926799 -1.8719622e+37
1.9113765 0.07923101 3.1496643 -1.4633889e+37
3.1126977 1.1452018 2.3794277 -1.6305518e+37
3.0738914 1.4672629 2.0494592 -1.4553095e+37
4.8463832 1.765752 1.0138086 -1.5309581e+37
4.8593936 1.8084574 1.019092 -1.6295083e+37
4.9291312 1.9524902 1.0367856 -3.1865253e+37
5.0072505 2.1099836 1.055472 -1.6556383e+37
5.0672771 2.1421046 1.0582587 -1.6138365e+37
4.8637122 1.9900791 1.0385035 -1.4132159e+37
4.9584105 2.1913109 1.0589769 -1.7224911e+37
5.0646504 2.2081653 1.0610416 -1.5804447e+37
4.5168097 1.6794017 0.99313639 -1.4971078e+37
4.7872169 1.9640425 1.0328339 -1.0633824e+37
4.7518347 2.0490711 1.0386867 -3.2193686e+37
4.5216128 1.8082801 1.0078857 -1.264365e+37
4.7429967 2.0423386 1.0379796 -1.0633904e+37
4.8480436 2.2192349 1.051721 -1.7637029e+37
4.6785661 2.130923 1.0362797 -1.0633824e+37
4.8462339 2.3462423 1.0558828 -1.3548993e+37
4.4919281 1.9905008 1.0175801 -1.3219656e+37
4.5543602 2.0687287 1.0251729 -1.605563e+37
4.6245338 2.2046287 1.0347098 -1.2383664e+37
4.3739856 2.0479879 1.0106883 -1.3805402e+37
4.5435455 2.2209439 1.0291435 -1.4057236e+37
4.6185113 2.3067766 1.0376713 -1.505319e+37
4.6868674 2.4357659 1.0469023 -1.3137545e+37
4.398739 2.205087 1.0186416 -1.0633985e+37
4.4366963 2.2091777 1.0208398 -1.0633824e+37
4.4960992 2.3025802 1.0283667 -1.5304379e+37
4.6189445 2.4719583 1.0432818 -1.2801641e+37
4.2629328 2.0894556 1.003596 -1.298015e+37
4.3797329 2.2519977 1.018003 -3.987684e+37
4.3956365 2.3511764 1.0225788 -1.580706e+37
4.536679 2.5329162 1.0392425 -1.5390698e+37
4.1774059 2.1552653 1.0001565 -1.5548393e+37
4.1775721 2.1782446 1.0004315 -1.5384828e+37
4.2865663 2.3609594 1.0147837 -3.1883664e+37
4.413591 2.5479911 1.0305874 -1.7881053e+37
4.0162028 2.1150365 1.000858 -1.747253e+37
4.2308598 2.3630469 1.0108194 -1.0634885e+37
3.9146377 2.0523926 1.0059549 -1.59735e+37
4.0100999 2.1230868 1.0010728 -1.6375928e+37
4.0643607 2.2402877 1.0068484 -1.4553419e+37
4.0865093 2.3090462 1.0102559 -1.4801683e+37
4.1655135 2.3739159 1.0088794 -1.0633824e+37
4.1625848 2.4048286 1.0108817 -1.5980041e+37
4.2413453 2.5244173 1.0166575 -1.4226992e+37
4.280654 2.6263843 1.0230871 -1.6470367e+37
3.8999019 2.1189957 1.0109513 -1.721026e+37
4.0233198 2.3892322 1.021995 -1.6301291e+37
4.1289568 2.4627747 1.0188213 -1.5817344e+37
4.1297258 2.5430146 1.0251034 -1.5550655e+37
3.7294932 2.1128367 1.0248287 -1.7303732e+37
3.9111459 2.3993361 1.0322307 -1.3138842e+37
4.1546903 2.6414002 1.0299871 -1.5802175e+37
3.451593 1.8220275 0.99462678 -1.3971232e+37
3.6125297 2.0868439 1.0273065 -1.438759e+37
3.6506745 2.1629385 1.0353912 -1.6545333e+37
3.759821 2.2333759 1.0317465 -1.4636176e+37
3.7528381 2.3178459 1.0393172 -1.4887683e+37
3.8446311 2.4698469 1.0439076 -1.4143563e+37
4.0858091 2.7768452 1.0474973 -1.7551016e+37
3.0121037 1.2606251 0.97773503 -1.7473826e+37
3.1004141 1.3762323 0.97930982 -1.363632e+37
3.2651866 1.6649829 0.98525205 -1.4130861e+37
3.4759672 1.940791 1.009088 -1.3054126e+37
3.5149617 2.0413985 1.0223644 -1.3635012e+37
3.7367068 2.3886751 1.0456754 -1.4889968e+37
3.8076938 2.4903458 1.0481535 -1.3637948e+37
3.8169619 2.567649 1.0522694 -1.5471508e+37
3.9704948 2.7693838 1.0563331 -1.5213792e+37
4.0702524 2.8297108 1.0525146 -1.5631772e+37
3.1275075 1.5097554 0.98366379 -1.5637654e+37
3.3141323 1.8009325 0.99212607 -1.5973556e+37
3.4182973 2.0081256 1.0177588 -1.455765e+37
3.4470207 2.0927582 1.0287366 -1.3889452e+37
3.5075736 2.1156106 1.0311806 -1.2887013e+37
3.6002485 2.3375329 1.0532548 -1.5395274e+37
3.9335603 2.7779944 1.0596163 -1.2550444e+37
3.8759978 2.8494691 1.0701769 -1.3474066e+37
3.9494914 2.9216704 1.0699521 -1.4135761e+37
2.7385506 0.75876218 2.3691486 -1.4804273e+37
3.647929 0.51565482 1.6314649 -1.7473771e+37
3.2502327 2.0773675 2.2964978 -1.6303561e+37
2.7904525 1.9493499 2.5553715 -1.2467393e+37
4.1883491 0.79284073 1.0084244 -1.9893138e+37
4.1519726 0.77583866 1.0062439 -1.5720728e+37
4.2100385 0.84826754 1.0084393 -1.3469832e+37
4.3219521 1.1737941 0.99310217 -1.3633715e+37
4.1758396 1.1129469 1.0676457 -1.7554584e+37
4.2755551 1.3374431 0.97805236 -1.7136905e+37
3.6625854 0.8986199 0.97119918 -1.8393837e+37
3.6502767 0.95253612 0.9704703 -1.4807849e+37
3.5388043 0.9532468 0.97066019 -1.5133324e+37
3.531989 1.037044 0.96998257 -2.4322123e+37
3.1984895 1.1596546 0.96938942 -1.7304736e+37
3.3017501 1.319476 0.97159994 -1.5391045e+37
3.1418192 1.2215242 0.97284093 -1.4395744e+37
3.1829505 1.2829206 0.97352348 -1.464174e+37
3.2171024 1.3118111 0.97401827 -1.6889635e+37
3.2776898 1.408326 0.97569718 -1.3548047e+37
3.328388 1.7989495 0.99153542 -1.5807711e+37
4.1158495 0.49736506 2.0159873 -1.5055797e+37
4.0966117 1.965024 0.98694282 -1.4469378e+37
3.9731969 -1.14229 2.4788542 -1.4807512e+37
2.8005711 -1.842137 5.7815707 -1.6385998e+37
3.2774031 0.81595717 2.4410816 -1.6134156e+37
2.7187678 0.29190958 2.5324223 -1.5554565e+37
4.3443351 -0.01755051 2.546036 -1.6887388e+37
3.5938352 0.025996514 2.3223383 -1.5304372e+37
4.1883859 1.4161681 1.3179866 -1.5133645e+37
4.5579047 2.1071874 2.7056377 -1.4887352e+37
3.4708828 0.95246326 2.2893774 -1.3146981e+37
3.9408406 0.92012357 1.7702868 -1.6136755e+37
4.3242677 2.1456283 1.4596869 -1.5471148e+37
3.046751 1.4091679 1.3807556 -1.6634561e+37
4.0954595 1.174396 2.4745106 -1.6469039e+37
4.5488286 0.90976444 2.1600267 -1.2390177e+37
3.1997115 1.1800684 2.9362579 -1.8310096e+37
3.8219976 1.7363881 1.5095787 -1.4973358e+37
4.1336862 2.3189332 2.153792 -1.3721387e+37
3.6548156 1.6700914 1.6150001 -1.4386601e+37
3.6262787 2.1462342 2.6529341 -1.6137093e+37
3.1468477 1.7355038 1.6935934 -1.7383869e+37
12.346465 -13.07939 21.241074 -1.3970574e+37
3.7290541 -0.17078079 2.6203603 -1.596802e+37
4.5258324 1.6005401 1.2387057 -1.448077e+37
4.8486597 1.5683672 2.9119318 -1.5394591e+37
4.3382348 0.72460061 5.294724 -1.5223582e+37
4.5210539 2.1831963 2.1722058 -1.5472178e+37
2.8919322 1.5626912 2.2932611 -1.5975834e+37
3.3974175 1.9918596 1.4368362 -1.3553259e+37
4.9838792 1.5736639 1.8785365 -1.6891925e+37
3.9169045 0.9253092 3.0297202 -1.5305015e+37
3.5634324 0.93048996 1.5943295 -1.6221796e+37
3.2446311 2.8287011 3.4963314 -1.4634221e+37
3.9871454 -0.025156254 3.5969295 -1.5556194e+37
4.9342131 0.68870683 2.3780013 -1.7720763e+37
3.1699431 2.0770538 2.9559094 -1.6636518e+37
3.5121754 2.4298499 2.0201599 -1.4469679e+37
2.5767555 1.9731095 2.4185059 -1.5137863e+37
4.9967007 2.3694405 1.0617061 -1.4226352e+37
5.0886746 2.5432245 1.0586804 -1.7636062e+37
5.2667003 2.8514972 1.0501611 -1.6382081e+37
4.5855101 1.9095725 1.0192177 -1.3724606e+37
4.6116364 1.9771533 1.0254432 -1.9310613e+37
4.7778167 2.1474336 1.0438605 -1.3390032e+37
4.7664335 2.1856237 1.044437 -1.6641431e+37
4.8504079 2.218634 1.0521023 -1.4638459e+37
5.0307341 2.5049598 1.0600442 -1.4887987e+37
4.5793768 2.0122297 1.0253162 -1.5138514e+37
4.6462777 2.1021078 1.0327792 -1.4049425e+37
5.0506167 2.7020518 1.0571924 -1.488899e+37
5.0818424 2.8714261 1.0545104 -1.7803828e+37
5.2134712 2.9533572 1.0531805 -1.3636649e+37
5.2369532 3.0311062 1.0523217 -1.3637321e+37
4.8326464 2.5039202 1.0602191 -1.530827e+37
5.004045 2.9108821 1.0545944 -1.539039e+37
4.5846665 2.364001 1.0371175 -1.5803792e+37
4.7771679 2.619935 1.059908 -1.5470852e+37
4.8238667 2.7232226 1.0579806 -1.5301425e+37
4.9508925 2.8357097 1.0561333 -1.063497e+37
4.9121285 2.9136008 1.0559716 -1.0633824e+37
5.0052698 3.0028729 1.0541303 -1.8220165e+37
5.0944649 3.1052648 1.0520717 -1.6132213e+37
4.8925422 2.9330029 1.0557254 -3.9232876e+37
4.9585638 3.1448276 1.0520539 -1.6061806e+37
4.7372705 2.9736063 1.0566407 -1.8609192e+37
4.6216139 3.066073 1.0556313 -2.683379e+37
4.7352557 3.1812913 1.0536727 -1.7141853e+37
4.4922422 2.9057213 1.0488633 -1.3970903e+37
4.6019962 3.0978701 1.0560791 -1.0633824e+37
4.6478174 3.1723416 1.053758 -1.7636702e+37
4.2287252 2.7560677 1.0334524 -1.5635395e+37
4.28495 2.8291319 1.0341627 -1.3390665e+37
4.4389813 3.0789909 1.0507294 -1.3968948e+37
4.4856952 3.1567747 1.056116 -1.0633824e+37
4.6363964 3.2870472 1.0532476 -1.2641027e+37
4.6599371 3.3379803 1.0528157 -1.6301603e+37
4.5450508 3.3406836 1.0519456 -2.0971816e+37
3.9312649 2.5841298 1.0440787 -1.155518e+37
4.0251111 2.6931581 1.0448186 -1.6047819e+37
4.1808387 2.9175152 1.0493078 -1.4637127e+37
4.3781652 3.2666223 1.0543258 -1.6554392e+37
4.4158379 3.3363993 1.0474719 -1.5556205e+37
4.4416016 3.3410292 1.0483117 -1.4388903e+37
4.1270422 3.0301943 1.0638614 -1.3884597e+37
4.2462391 3.1198759 1.0610865 -1.5723653e+37
4.3040938 3.2181932 1.0578842 -1.0633824e+37
4.3081401 3.360793 1.0453804 -1.5802513e+37
3.5589475 2.1539735 1.0349968 -1.5801522e+37
3.600923 2.3509275 1.0530249 -1.4555714e+37
4.132829 3.1475026 1.0631077 -1.4056601e+37
4.1365066 3.2191641 1.0582846 -1.5137222e+37
4.312627 3.4535707 1.0358417 -1.721772e+37
4.3942161 3.5035354 1.0334771 -1.7052888e+37
3.287378 1.953414 1.0093732 -1.3979075e+37
3.4442372 2.1263875 1.0316137 -1.4137707e+37
3.6678366 2.6431693 1.0707858 -1.5551977e+37
3.9987717 3.1778442 1.0626949 -1.330174e+37
4.1338353 3.287233 1.054575 -1.5221933e+37
4.3022547 3.5405976 1.0280917 -1.7387475e+37
3.3009782 2.1515972 1.0344513 -1.3969611e+37
3.3358047 2.2401358 1.0453278 -1.4467081e+37
3.4516406 2.3581231 1.0609136 -1.680301e+37
3.7505188 2.8532237 1.081054 -1.7379653e+37
3.8279788 3.0744112 1.069385 -1.463422e+37
3.9208594 3.095928 1.0683483 -1.4300628e+37
4.0905577 3.4617561 1.0383653 -1.6557681e+37
3.1028947 1.9811368 1.0133183 -1.7896036e+37
3.1675546 2.0692621 1.0234124 -1.3639904e+37
3.2482065 2.1244739 1.0315944 -1.3218674e+37
3.2709582 2.1540163 1.0355761 -1.3555529e+37
3.2790038 2.258225 1.0480105 -1.6558331e+37
3.3689619 2.4032626 1.066558 -1.8552157e+37
3.4189153 2.4386989 1.0709807 -1.4303543e+37
3.5653751 2.735363 1.0868965 -1.2557332e+37
3.6326048 2.8105241 1.0858647 -1.4473617e+37
3.7345499 2.9680573 1.0746868 -1.5136923e+37
3.7960161 3.0856179 1.0686824 -1.5639605e+37
3.8287478 3.1761357 1.0632788 -1.5302746e+37
3.8738038 3.283696 1.0561122 -1.6461574e+37
3.9647304 3.395758 1.0486859 -1.0633824e+37
4.1422397 3.5665694 1.025687 -1.5220644e+37
4.1394299 3.6527921 1.0161069 -1.3133658e+37
4.4422843 1.0252729 1.9743567 -1.5144413e+37
4.5274612 1.5613928 1.4549749 -1.705058e+37
4.2471356 1.6192627 0.9780077 -1.630749e+37
4.0193401 1.8751924 2.3551705 -1.4558966e+37
2.9950393 1.6219163 7.6453909 -1.9055186e+37
2.738162 0.92076854 2.0417822 -1.5308302e+37
4.3202438 1.4198232 0.97015378 -1.5049606e+37
4.4130634 1.5799771 0.97866254 -1.5634737e+37
4.3310061 1.7560137 0.99482568 -1.5059354e+37
4.0781303 1.6307597 1.037816 -1.421981e+37
4.0374693 1.8269774 0.9774334 -1.4883118e+37
4.5767226 3.0224442 2.217265 -1.5966077e+37
3.7163529 1.7256735 0.98179889 -1.6716974e+37
3.7481553 1.9090013 1.0043642 -1.6302941e+37
3.9982791 2.8173437 3.1845135 -1.4548846e+37
3.6097685 1.8124763 0.99256864 -1.7047354e+37
3.7670276 2.1305046 1.0224831 -1.4052368e+37
3.6052435 2.2282493 1.9895754 -1.4805581e+37
3.5568653 1.8423834 0.99613221 -1.8050786e+37
3.5890992 1.8855817 1.0014658 -1.3313149e+37
3.2456617 2.1896536 2.4173625 -1.4810489e+37
3.5061977 1.9842335 1.0144296 -1.7716192e+37
3.4928921 2.0135418 1.0169343 -1.8560301e+37
3.9421429 3.2907011 1.0538837 -1.4397043e+37
3.2983349 5.5039322 8.7719924 -1.4968147e+37
4.3128291 0.4436966 2.0575142 -1.7563038e+37
4.0943249 1.1239761 2.3296652 -1.4887347e+37
4.7278716 2.0923507 1.9676349 -1.197153e+37
4.7464744 2.4181136 1.7482485 -1.3396218e+37
3.6807063 2.5288703 2.0327245 -1.5643206e+37
4.1518983 1.098475 1.4644292 -1.5139199e+37
4.5333247 0.77358823 3.4586035 -1.4723811e+37
2.9924156 1.006044 2.1822184 -1.613806e+37
4.3834012 1.9700423 1.7584983 -1.6473288e+37
2.7322462 1.7516831 3.472328 -1.4550824e+37
4.0460869 1.4114227 1.4106545 -1.5804132e+37
2.5682983 1.5931841 2.256002 -1.6312678e+37
5.0990626 3.2736299 2.9172368 -1.5806354e+37
4.0971349 2.8963154 1.2646678 -1.4140636e+37
4.1259816 2.5763575 2.3043 -1.4138034e+37
4.226306 1.6683876 1.8178454 -1.3055465e+37
3.7633601 0.87684991 3.1568799 -1.3050542e+37
3.6871848 3.1326669 2.0244593 -1.5560094e+37
4.2709119 3.4306958 3.3329223 -1.4972714e+37
3.2714566 1.6118468 1.7630658 -1.5302741e+37
4.7909103 2.5486603 1.424332 -1.4467089e+37
4.27198 2.7988402 2.5677029 -1.5888834e+37
4.1723795 2.725965 1.2330608 -1.4718913e+37
4.4071962 1.1983208 2.5271733 -1.6310062e+37
1.6733696 0.65558437 3.2200708 -1.4643025e+37
4.2607567 2.208619 1.1166599 -1.696819e+37
4.330441 2.4752598 2.1684563 -1.5472481e+37
3.7007425 2.400256 1.1385518 -1.4804941e+37
4.5130866 1.3144387 1.6624041 -1.3973187e+37
3.2257806 2.3144493 2.9907925 -1.5051547e+37
4.9468055 1.8801746 2.0179441 -1.7550041e+37
4.642488 1.468062 2.4970612 -1.5972564e+37
4.2477575 1.5535494 2.1278675 -1.5220316e+37
5.0572088 2.4093813 3.6343468 -1.4470011e+37
3.8063449 1.7791592 2.7071393 -1.5892405e+37
3.2236434 2.5343959 2.5017881 -1.5805108e+37
5.076522 2.8147261 3.1383715 -1.5057398e+37
5.3039929 3.2094142 1.0481425 -1.5967e+37
5.2952475 3.2890566 1.0477591 -1.5973205e+37
5.3711162 3.3678832 1.0453383 -1.8632973e+37
5.3891091 3.4409474 1.0439971 -3.1880216e+37
5.4888228 3.5139159 1.0369714 -1.6051731e+37
5.5315081 3.6455565 1.0341965 -1.4551133e+37
4.8760093 2.711783 1.0583013 -1.6721877e+37
4.9610031 2.8794748 1.0555706 -1.6223101e+37
5.019101 2.9725126 1.0538894 -1.681081e+37
5.096122 2.9824095 1.0530142 -1.646452e+37
5.174797 3.2600894 1.0483098 -1.6555697e+37
5.2881099 3.3783651 1.0463291 -1.6630013e+37
4.8289459 2.7378534 1.0584239 -1.872775e+37
5.2417187 3.4230637 1.0460283 -1.6134795e+37
5.3233999 3.590749 1.0434259 -1.4554377e+37
5.3457249 3.6760934 1.0421508 -1.6469059e+37
4.9412846 3.1316716 1.0520195 -1.4965547e+37
5.327587 3.7029186 1.0420518 -1.3641196e+37
4.8825052 3.262972 1.0511743 -1.6130566e+37
5.1926178 3.6617702 1.0435136 -1.0635079e+37
5.2116447 3.673161 1.0436093 -1.7803826e+37
4.8840586 3.2777383 1.0512548 -1.5222594e+37
4.9143746 3.3322356 1.0498523 -1.5140489e+37
4.9809011 3.4375734 1.0480545 -1.44801e+37
5.0218511 3.539436 1.0467595 -1.5975479e+37
5.1010483 3.615713 1.044473 -1.0635371e+37
4.9619814 3.7007553 1.0339154 -1.0633824e+37
5.0077884 3.7115467 1.0351449 -1.0633905e+37
5.0495986 3.8343829 1.0248558 -1.2802945e+37
4.7020052 3.4123678 1.0502111 -1.4306464e+37
4.8456656 3.5215584 1.0457919 -1.6213672e+37
4.9033652 3.6693403 1.0347216 -1.5812903e+37
4.9634036 3.8194775 1.0241694 -1.3554554e+37
4.8637601 3.8012718 1.0230041 -1.0633824e+37
4.9312706 3.8652601 1.0199345 -1.4051367e+37
4.981472 3.9619734 1.0138608 -1.4464798e+37
5.001095 3.9927536 1.0123928 -1.6556376e+37
4.6387112 3.6296812 1.0305228 -1.3143384e+37
4.9392539 3.9904067 1.009497 -1.5636695e+37
4.6889374 3.7895 1.0182744 -1.397544e+37
4.7474933 3.9200671 1.0091849 -1.4892571e+37
4.5053098 3.6124956 1.0273916 -1.3805394e+37
4.6220474 3.8823864 1.0083553 -1.0633824e+37
4.7218874 3.9383815 1.0077582 -1.4053342e+37
4.3854454 3.6321457 1.0225711 -1.5468891e+37
4.6023188 3.9314694 1.0039874 -1.0670495e+37
4.6451626 3.9794561 1.0011736 -1.7053205e+37
4.6710138 4.1155236 0.99560233 -1.4469039e+37
3.6753186 2.7090776 1.0755463 -1.5386146e+37
3.8535941 2.9130986 1.0767983 -2.0303621e+37
3.8530452 3.0158411 1.0723521 -1.3308252e+37
3.9263227 3.0781022 1.0692177 -1.4802674e+37
3.9831656 3.1625473 1.0628952 -1.5389717e+37
4.0634009 3.3638259 1.0488776 -1.5311863e+37
4.190975 3.5923749 1.1201625 -1.4640715e+37
4.5349496 4.0121321 0.99453679 -1.0633824e+37
4.6097842 4.0865214 0.99153401 -1.4553426e+37
4.6515797 4.2331816 0.99992588 -1.355292e+37
3.5685915 2.6527252 1.0799782 -1.3552274e+37
3.6896958 2.8447048 1.0834143 -1.3806372e+37
3.7175771 2.9224835 1.0790326 -1.5636996e+37
3.8984794 3.2131203 1.0593746 -1.3216391e+37
3.9264789 3.2309956 1.0579978 -1.5723658e+37
4.3732239 3.8695965 1.0017706 -1.397414e+37
3.4497578 2.7440823 1.0916116 -1.5389719e+37
3.547712 2.8924545 1.0813575 -1.7136945e+37
3.7264329 3.0535805 1.0701508 -1.7797648e+37
3.7994217 3.1607122 1.0630516 -1.3887182e+37
3.7857086 3.2338205 1.0587872 -1.4391846e+37
3.8891675 3.3731745 1.0493815 -1.3141118e+37
4.0778846 3.6355854 1.0185736 -1.3137543e+37
4.2181826 3.8077112 1.001532 -1.5391675e+37
4.312295 3.9725865 0.99088804 -1.3888824e+37
4.3591237 4.004803 0.9902591 -1.3974493e+37
4.4259978 4.0929937 0.98549879 -1.6808843e+37
4.4846172 4.1213867 0.98526323 -1.4473284e+37
4.527655 4.1987711 0.99003607 -1.4719894e+37
3.6472302 3.1826447 1.0627726 -1.7547125e+37
4.2300963 3.9367926 0.99134132 -1.664139e+37
4.4246665 4.2929882 0.98727115 -1.2721518e+37
3.2699373 2.7518957 1.0885887 -1.4135758e+37
3.5053126 3.0004824 1.0745756 -1.7139212e+37
3.7652149 3.3699932 1.0503203 -1.6382106e+37
3.8253415 3.5444283 1.032936 -1.4468055e+37
3.8569398 3.5923305 1.0273933 -1.5387441e+37
3.9416508 3.7158049 1.0120715 -1.5304692e+37
4.1075005 3.9001568 0.99092141 -1.6391526e+37
4.1825278 3.9783707 0.98745662 -1.5552287e+37
4.2901378 4.1338939 0.97766192 -1.0633824e+37
4.3966463 4.3160204 0.98581727 -1.3970246e+37
3.2706209 2.9401881 3.3499345 -1.3803778e+37
3.8406648 1.8705457 1.5362758 -1.5305009e+37
3.4041613 1.759431 2.0686065 -1.5299804e+37
4.4772759 2.1886723 1.0234239 -1.4887999e+37
4.5963006 2.3021562 1.0357347 -1.5637977e+37
4.684312 2.4287706 1.0468709 -1.6049757e+37
4.3980491 2.2317724 1.0186246 -1.5636364e+37
4.5282113 2.416607 1.0348273 -1.7383225e+37
4.6713776 2.7234853 1.0560469 -1.8054686e+37
4.3440088 2.3399021 1.0181388 -1.2887987e+37
4.2311994 2.3647307 1.0101665 -1.3640905e+37
3.9769136 2.4544878 1.0306949 -1.5464654e+37
4.2835061 2.891962 1.1232985 -1.4391517e+37
3.9278291 2.4629149 1.0351898 -1.4553406e+37
4.0291609 2.6963194 1.0449946 -1.5634372e+37
4.1116675 2.8074608 1.0471126 -1.5140172e+37
3.6633525 2.5906548 1.0668875 -1.5224531e+37
3.8050489 2.6720174 1.0611259 -1.6133185e+37
3.7533252 2.7342587 1.0716301 -1.5312522e+37
4.2914026 3.4975448 1.1385496 -1.6215283e+37
3.6582496 2.6001584 1.5566015 -1.4218831e+37
4.1668695 2.3546703 1.4639242 -1.7811977e+37
1.3305185 0.61447875 8.0853374 -1.7304058e+37
4.5466182 2.0605914 2.7254104 -1.3806041e+37
3.7641083 2.4387705 1.6635175 -1.3135572e+37
4.8084541 3.0811943 1.78682 -1.4557653e+37
2.9823887 1.7818822 3.3225152 -1.6640428e+37
4.508405 2.8348857 1.8208683 -1.5220615e+37
3.557628 2.9280982 3.3876039 -1.3385135e+37
5.1536769 2.5008186 3.4436267 -1.9138909e+37
4.7647798 3.8595852 2.0588671 -1.5471837e+37
3.6185929 3.6926967 2.0187016 -1.3892712e+37
4.7311354 1.8096392 2.281474 -1.738779e+37
4.60234 2.4280381 1.1414329 -1.6056619e+37
4.4111119 2.6857061 2.1472769 -1.8884155e+37
5.8304552 2.5635895 3.9069151 -1.5976806e+37
4.0696012 2.8287176 1.0517221 -1.4971723e+37
4.7406947 4.3389362 2.4128525 -1.6052706e+37
4.1950604 3.3244059 1.655399 -1.7301144e+37
4.2712657 4.042552 2.0426044 -1.3968643e+37
3.6921762 1.907599 7.5305556 -1.5972242e+37
3.5326296 2.663322 2.8718711 -1.3305637e+37
4.5698334 2.6371497 1.4040388 -1.5977107e+37
4.1598037 2.3332624 1.4706964 -1.8131899e+37
3.8620783 2.0002871 2.1456212 -1.3222576e+37
4.5936435 3.063131 2.1133099 -1.6473956e+37
3.6379624 2.7584443 2.3461791 -1.4971078e+37
3.7699626 3.7989683 1.9001263 -1.5220974e+37
4.0140644 3.622279 1.271176 -1.3808646e+37
3.7842892 3.2977716 2.1641614 -1.7305692e+37
4.5240698 2.2490187 1.8963821 -1.3970259e+37
4.6436845 2.7292118 2.4045502 -1.5641875e+37
4.6122076 3.2463884 2.0513091 -1.422079e+37
3.937685 4.0479492 2.1998176 -1.8971124e+37
3.9701182 1.4165508 2.3795129 -1.5634718e+37
3.9671343 2.3836131 2.1087449 -1.4807207e+37
5.3088298 3.4094512 2.7451961 -1.7624955e+37
5.1904157 4.4721363 4.9610808 -1.388847e+37
5.7054387 3.9379335 1.0362975 -1.4480773e+37
5.9580691 4.3011649 1.0352298 -1.4551794e+37
5.1437156 3.354544 1.0486268 -1.6147199e+37
