# .PCD v.7 - Point Cloud Data file format
VERSION .7
FIELDS x y z rgb
SIZE 4 4 4 4
TYPE F F F F
COUNT 1 1 1 1
WIDTH 775
HEIGHT 1
VIEWPOINT 0 0 0 1 0 0 0
POINTS 775
DATA ascii
2.57186089e+01 3.68733478e+00 -1.41668305e-01 -1.49905451e+37
2.33757648e+01 1.36763561e+00 -7.29509294e-02 1.53202896e+08
2.41534767e+01 2.28580022e+00 -7.47946724e-02 -1.58975960e+37
2.23582821e+01 2.11479568e+00 -3.33653316e-02 1.63762368e+08
2.60686817e+01 1.90597451e+00 -1.46566436e-01 -1.46517300e+37
2.61203136e+01 1.82723463e+00 -1.54633641e-01 -1.33117828e+37
2.59991379e+01 2.26027369e+00 -1.43456683e-01 -1.14694668e+37
2.58713951e+01 2.72475123e+00 -1.43107027e-01 -1.47267027e+37
2.56076031e+01 3.69541097e+00 -1.37202397e-01 -1.58969318e+37
2.58807964e+01 2.46291852e+00 -1.38553396e-01 1.73244832e+08
2.58865585e+01 2.86333585e+00 -1.46902397e-01 -1.45715651e+37
2.54983711e+01 4.35207748e+00 -1.59296051e-01 -1.55665618e+37
2.18935299e+01 2.45136929e+00 -7.20527470e-02 1.62726208e+08
2.42354069e+01 1.47675717e+00 -9.07489583e-02 1.84979952e+08
2.32039909e+01 2.09503508e+00 -5.24654947e-02 -1.35678368e+37
2.35668697e+01 2.45068121e+00 -5.56238741e-02 -1.33974468e+37
2.43389492e+01 1.89233613e+00 -8.03191438e-02 -1.32332493e+37
2.36690998e+01 1.33692884e+00 -7.38209933e-02 1.62693344e+08
2.55825977e+01 4.56377459e+00 -1.61109239e-01 1.88056096e+08
2.44549561e+01 1.53285766e+00 -8.68258029e-02 -1.24777561e+37
2.57812309e+01 2.83639097e+00 -1.35276482e-01 -1.29794732e+37
2.59651051e+01 2.58275390e+00 -1.42943770e-01 -1.38121942e+37
2.39557724e+01 2.17789340e+00 -6.55209720e-02 -1.17245410e+37
2.56465855e+01 3.58040118e+00 -1.39345318e-01 -1.26403387e+37
2.58306141e+01 2.35359120e+00 -1.43106505e-01 -1.15554617e+37
2.44793434e+01 1.66984212e+00 -9.52674150e-02 -1.39867839e+37
2.41302319e+01 2.64479613e+00 -6.34597391e-02 -1.18059939e+37
2.30202293e+01 3.61033368e+00 -7.78652504e-02 1.62824432e+08
2.43742523e+01 1.58946168e+00 -8.80474672e-02 -1.47325275e+37
2.37580147e+01 1.50307846e+00 -7.61107281e-02 1.66916368e+08
2.36928082e+01 2.61460972e+00 -5.08616418e-02 -1.65657557e+37
2.56490192e+01 3.95770645e+00 -1.51624978e-01 1.45825888e+08
2.55553169e+01 3.63044977e+00 -1.30809069e-01 -1.33130732e+37
2.26081600e+01 2.37066960e+00 -3.42068076e-02 1.51117968e+08
2.18489418e+01 1.12777567e+00 -4.31598797e-02 2.62682064e+08
2.25403156e+01 2.07741189e+00 -2.65037343e-02 2.62682048e+08
2.25501328e+01 1.13365352e+00 -4.96708006e-02 2.09011424e+08
2.26462021e+01 1.65008378e+00 -3.86036225e-02 2.18604128e+08
2.26914635e+01 1.21932065e+00 -5.11840880e-02 1.97530288e+08
2.20147629e+01 3.99809122e+00 -1.24412157e-01 1.45825888e+08
2.18496304e+01 2.56386828e+00 -7.58838579e-02 1.90169840e+08
2.32324390e+01 4.15373707e+00 -2.64941752e-02 1.42676032e+08
2.21064262e+01 1.65651655e+00 -2.77034547e-02 2.12321168e+08
2.19133415e+01 1.02416289e+00 -5.32311313e-02 1.81621136e+08
2.23224220e+01 2.70126295e+00 -5.84532693e-02 1.79679776e+08
2.21254005e+01 2.80389428e+00 -7.82063976e-02 2.09085376e+08
2.32779541e+01 1.37403047e+00 -5.78981191e-02 1.76521824e+08
2.30210342e+01 1.41592050e+00 -5.08372039e-02 1.92303872e+08
2.27974110e+01 1.34518278e+00 -4.81037050e-02 1.85918000e+08
2.35900116e+01 2.22376704e+00 -5.83196655e-02 -1.67338753e+37
2.20292130e+01 1.09270692e+00 -4.65561785e-02 1.64815072e+08
2.27600460e+01 1.26724601e+00 -5.38234860e-02 1.92307760e+08
2.23697128e+01 1.18582475e+00 -4.82805893e-02 1.84963584e+08
2.34634953e+01 1.47881258e+00 -7.26341754e-02 1.83935456e+08
2.58942184e+01 3.45102167e+00 -1.45717144e-01 -1.18890744e+37
2.20124702e+01 1.18542910e+00 -3.90731394e-02 1.86028560e+08
2.25007343e+01 4.07013941e+00 -8.98436233e-02 1.57438192e+08
2.62313290e+01 2.00181079e+00 -1.57744482e-01 1.76521616e+08
2.18727646e+01 1.32887101e+00 -1.85708776e-02 1.97526048e+08
2.58765507e+01 3.93285346e+00 -1.53762519e-01 -1.40630610e+37
2.18885288e+01 1.76381850e+00 -1.85999274e-02 1.55386000e+08
2.23252182e+01 3.97222781e+00 -9.76462588e-02 1.45834080e+08
2.17454834e+01 2.60738420e+00 -8.38437602e-02 1.63758336e+08
2.26199780e+01 2.04111624e+00 -3.65379341e-02 1.50089856e+08
2.29159660e+01 1.34425592e+00 -5.54825962e-02 1.49065888e+08
2.20092697e+01 1.37857366e+00 -2.85198484e-02 1.63832000e+08
2.57209759e+01 3.96667933e+00 -1.48612544e-01 -1.17203222e+37
2.33126869e+01 4.18288326e+00 -2.83395872e-02 1.68055056e+08
2.24151726e+01 2.60074568e+00 -4.20976356e-02 1.71245968e+08
2.33576183e+01 1.29663503e+00 -6.70440048e-02 1.70193328e+08
2.55774937e+01 1.65842617e+00 -1.24774128e-01 -1.44005501e+37
2.25477085e+01 2.17442751e+00 -3.25920805e-02 1.53202832e+08
2.32411327e+01 1.54092073e+00 -5.37617207e-02 1.57487328e+08
2.21911545e+01 1.56368196e+00 -2.80679185e-02 1.55402416e+08
2.22758808e+01 1.56134439e+00 -2.87502464e-02 2.04948304e+08
2.28426533e+01 1.63019609e+00 -4.31744084e-02 1.75407600e+08
2.39402637e+01 1.68091166e+00 -8.08937252e-02 -1.31404243e+37
2.59155827e+01 3.61752772e+00 -1.44897982e-01 -1.15557875e+37
2.27965946e+01 1.47975051e+00 -4.65679653e-02 1.49004384e+08
2.58952999e+01 3.53531599e+00 -1.42824501e-01 -1.21412279e+37
2.33211174e+01 1.59560597e+00 -5.91994971e-02 1.83841120e+08
2.25905437e+01 1.22310650e+00 -4.57142368e-02 1.58482624e+08
2.58147011e+01 4.30833435e+00 -1.41522810e-01 1.84775136e+08
2.21827183e+01 3.99612093e+00 -1.14381485e-01 1.75436288e+08
2.53638859e+01 4.38337660e+00 -1.46820992e-01 -1.23891562e+37
2.61586533e+01 2.38807440e+00 -1.59868583e-01 -1.44012156e+37
2.12622166e+01 3.91025209e+00 -1.87375516e-01 1.93302960e+08
2.17928371e+01 1.84624457e+00 -2.47803479e-02 1.65970080e+08
2.20168095e+01 1.30057168e+00 -3.03775370e-02 1.87986320e+08
2.48832340e+01 3.60185218e+00 -9.49014276e-02 -1.36492719e+37
2.25185013e+01 1.98076415e+00 -3.26777399e-02 1.85909696e+08
2.24423561e+01 1.97261024e+00 -3.07922624e-02 1.88023296e+08
2.25175133e+01 1.58021986e+00 -3.32171731e-02 1.55361408e+08
2.18816109e+01 1.22910905e+00 -1.77171361e-02 1.89084160e+08
2.26726990e+01 4.09698582e+00 -7.42870346e-02 1.70123664e+08
2.60766563e+01 2.48504043e+00 -1.54592261e-01 -1.18046958e+37
2.19313946e+01 2.53505182e+00 -6.80017099e-02 1.58507200e+08
2.55646305e+01 4.39255238e+00 -1.52919218e-01 -1.31423663e+37
2.25161972e+01 1.21939397e+00 -4.80443574e-02 1.80642176e+08
2.54746151e+01 3.15662146e+00 -1.19626850e-01 -1.50573744e+37
2.45365086e+01 1.84371901e+00 -8.98126215e-02 -1.53114800e+37
2.29412899e+01 2.66304350e+00 -3.18531133e-02 1.77566000e+08
2.27901344e+01 3.34550786e+00 -8.03081468e-02 1.46907248e+08
2.28720665e+01 1.72640479e+00 -4.46717180e-02 1.58531840e+08
2.19348030e+01 3.98748231e+00 -1.30615637e-01 1.56393632e+08
2.18062325e+01 1.24689758e+00 -1.73209850e-02 1.83833024e+08
2.40995655e+01 2.35830164e+00 -7.83218667e-02 -1.23080266e+37
2.55633411e+01 3.15412450e+00 -1.24761470e-01 -1.43891831e+37
2.12024670e+01 3.67189622e+00 -1.82621688e-01 1.88068400e+08
2.26329479e+01 1.28515482e+00 -4.63232696e-02 1.95457584e+08
2.23359413e+01 3.52530599e+00 -1.18745252e-01 1.72200336e+08
2.54794636e+01 1.80584407e+00 -1.23352028e-01 -1.44807011e+37
2.19518566e+01 1.26485217e+00 -2.97451466e-02 2.05939376e+08
2.18296623e+01 3.56532598e+00 -1.54664859e-01 1.56430544e+08
2.20747261e+01 2.99325180e+00 -9.50321779e-02 1.72192144e+08
2.57203903e+01 4.67599440e+00 -1.39143407e-01 1.60669888e+08
2.12846527e+01 3.62515187e+00 -1.94586843e-01 1.76533952e+08
2.24817009e+01 3.24371266e+00 -8.29052106e-02 1.75427984e+08
2.34753132e+01 2.57347822e+00 -4.80571128e-02 -1.42298584e+37
2.16210918e+01 3.93694925e+00 -1.59623027e-01 1.62771152e+08
2.45291271e+01 1.99050438e+00 -9.28047299e-02 -1.18884203e+37
2.35939617e+01 3.37811303e+00 -4.15990949e-02 -1.49798069e+37
2.37389355e+01 1.39689791e+00 -7.84727931e-02 1.70152208e+08
2.58765526e+01 3.74639320e+00 -1.42285004e-01 -1.54782889e+37
2.58803921e+01 4.41561890e+00 -1.42981037e-01 2.18461040e+08
2.58245926e+01 4.02864838e+00 -1.56932399e-01 -1.41474345e+37
2.50485935e+01 1.53933072e+00 -1.04345091e-01 -1.67354674e+37
2.22238140e+01 4.06675434e+00 -1.03047751e-01 1.46899024e+08
2.18314209e+01 4.03450012e+00 -1.36164591e-01 1.82731312e+08
2.61829624e+01 2.62818432e+00 -1.58887088e-01 -1.32264483e+37
2.59799271e+01 4.36003971e+00 -1.43186390e-01 1.64798640e+08
2.60255070e+01 4.20564127e+00 -1.45478904e-01 1.45813600e+08
2.56236248e+01 4.50206614e+00 -1.39663041e-01 1.97538592e+08
2.58188534e+01 4.19138193e+00 -1.44514769e-01 1.56369056e+08
2.61663666e+01 2.94268918e+00 -1.63335904e-01 1.85971424e+08
2.18902798e+01 1.44743681e+00 -2.12470368e-02 1.56430480e+08
2.57002754e+01 4.38142347e+00 -1.45731926e-01 -1.24725588e+37
2.62350712e+01 2.21321988e+00 -1.66392848e-01 1.89076064e+08
2.25887146e+01 1.97765183e+00 -3.57880965e-02 1.65859568e+08
2.16476212e+01 4.01897526e+00 -1.55222639e-01 1.73261120e+08
2.36551895e+01 4.27442360e+00 -5.22457957e-02 1.82788640e+08
2.22164154e+01 1.25035167e+00 -4.14948314e-02 1.91234576e+08
2.58871918e+01 4.25071383e+00 -1.49795920e-01 1.52133744e+08
2.21476288e+01 1.24740744e+00 -3.81068178e-02 2.02830592e+08
2.63389301e+01 1.73753381e+00 -1.60084054e-01 1.88060400e+08
2.59547424e+01 4.44745398e+00 -1.33123100e-01 1.49028992e+08
2.58636837e+01 4.12441683e+00 -1.52366742e-01 1.80666880e+08
2.22465725e+01 3.33442783e+00 -1.11306734e-01 2.01658992e+08
2.55011711e+01 1.62375343e+00 -1.22592077e-01 -1.18923158e+37
2.36398602e+01 2.77955985e+00 -4.91824895e-02 -1.42259439e+37
2.57157459e+01 4.48107529e+00 -1.44034475e-01 1.80748736e+08
2.62393284e+01 1.82558012e+00 -1.58143178e-01 1.45879152e+08
2.62746277e+01 2.37161064e+00 -1.59649357e-01 1.58494864e+08
2.47724667e+01 4.10198975e+00 -1.05943836e-01 -1.22213776e+37
2.59949970e+01 3.89439297e+00 -1.62583515e-01 1.60596224e+08
2.57191544e+01 4.06919432e+00 -1.55563653e-01 -1.34841110e+37
2.23858051e+01 4.07464170e+00 -9.57651213e-02 1.47959920e+08
2.44320507e+01 2.21719217e+00 -8.22381154e-02 -1.45702847e+37
2.60438442e+01 1.66309905e+00 -1.44730046e-01 1.74318032e+08
2.63293076e+01 1.86628437e+00 -1.57487601e-01 1.51142560e+08
2.34023132e+01 1.67310178e+00 -5.96646219e-02 -1.38955853e+37
2.55092411e+01 4.55671883e+00 -1.50734618e-01 1.82792624e+08
2.19138775e+01 4.06036568e+00 -1.27634257e-01 1.94372304e+08
2.63967609e+01 2.80143404e+00 -1.52165234e-01 -1.50745612e+37
2.60346966e+01 4.51215219e+00 -1.34825870e-01 1.94364080e+08
2.26988716e+01 4.16888142e+00 -7.08291307e-02 1.77500608e+08
2.59391956e+01 3.81061506e+00 -1.44265786e-01 -1.47299529e+37
2.59619923e+01 1.62540233e+00 -1.48461863e-01 -1.55681628e+37
2.61819115e+01 3.83062601e+00 -1.44150540e-01 -1.38109126e+37
2.60250988e+01 4.40789223e+00 -1.26160905e-01 1.53202864e+08
2.23252392e+01 4.14150143e+00 -1.01288952e-01 1.62722048e+08
2.61639671e+01 4.07159567e+00 -1.37853563e-01 -1.49016334e+37
2.20106468e+01 4.07752037e+00 -1.24018103e-01 1.43728704e+08
2.25241337e+01 4.15514183e+00 -8.40914696e-02 1.74334368e+08
2.21232433e+01 4.12147903e+00 -1.19391970e-01 1.57409472e+08
2.61561451e+01 3.51811409e+00 -1.49734274e-01 -1.47338497e+37
2.61450500e+01 4.63800049e+00 -1.26945600e-01 1.71168160e+08
2.62283878e+01 3.91201186e+00 -1.37416512e-01 -1.35642633e+37
2.56042004e+01 1.57706392e+00 -1.32197320e-01 -1.27250393e+37
2.50741711e+01 1.89196217e+00 -1.18985802e-01 -1.51505150e+37
2.23804417e+01 2.20448494e+00 -2.62923650e-02 1.69079056e+08
2.57345505e+01 3.88948750e+00 -1.36324078e-01 -1.31485449e+37
2.60981712e+01 4.56113529e+00 -1.28132477e-01 1.83874032e+08
2.62292824e+01 2.54573584e+00 -1.58581808e-01 -1.36479903e+37
2.63003521e+01 2.71880007e+00 -1.49132490e-01 -1.39020947e+37
2.27885075e+01 2.80944133e+00 -4.55814451e-02 1.63840256e+08
2.60725040e+01 3.97745538e+00 -1.43550023e-01 -1.29745953e+37
2.29368458e+01 4.15915012e+00 -5.66856265e-02 1.88044192e+08
2.23691120e+01 1.90275884e+00 -2.69286148e-02 1.81662032e+08
2.28265038e+01 4.16406631e+00 -6.58318847e-02 1.64893008e+08
2.24571686e+01 1.28840375e+00 -3.38033885e-02 1.46886736e+08
2.60257454e+01 2.39060092e+00 -1.55182272e-01 -1.11352089e+37
2.40628834e+01 2.77911949e+00 -7.66947120e-02 -1.20545751e+37
2.41665249e+01 3.95301175e+00 -7.71421716e-02 -1.51508421e+37
2.32742901e+01 2.22697234e+00 -5.52480817e-02 -1.42340759e+37
2.23364925e+01 3.33552933e+00 -1.12580180e-01 1.45858608e+08
2.24021168e+01 3.09750032e+00 -8.86560306e-02 1.76456112e+08
2.34779453e+01 3.73403692e+00 -5.20728342e-02 -1.23917549e+37
2.33356361e+01 2.95681429e+00 -4.51724082e-02 -1.32290343e+37
2.17587643e+01 3.12968421e+00 -1.30043641e-01 1.70217936e+08
2.56971893e+01 1.79243314e+00 -1.40166327e-01 1.56422320e+08
2.56284561e+01 3.38543200e+00 -1.32790074e-01 -1.31498404e+37
2.30087261e+01 2.05968356e+00 -4.75225300e-02 1.74420432e+08
2.63978958e+01 3.65149927e+00 -1.44383460e-01 -1.53247675e+37
2.45306072e+01 2.70735550e+00 -7.41704106e-02 -1.13033133e+37
2.64942436e+01 2.69382572e+00 -1.41930118e-01 -1.11365083e+37
2.31934261e+01 2.71323586e+00 -3.27603519e-02 1.55324608e+08
2.34925308e+01 4.28742933e+00 -5.22354245e-02 -1.70736690e+37
2.38604145e+01 3.11366868e+00 -4.80097905e-02 -1.11355335e+37
2.28366795e+01 2.96654439e+00 -4.44784015e-02 1.92295696e+08
2.38694706e+01 1.97086978e+00 -7.88230225e-02 -1.49788409e+37
2.50538712e+01 1.63081515e+00 -1.15665734e-01 -1.61510019e+37
2.30993156e+01 2.83007431e+00 -3.72412913e-02 1.59584464e+08
2.40581818e+01 1.76151609e+00 -8.29604268e-02 -1.40711689e+37
2.20516129e+01 2.60837889e+00 -1.25420559e-02 1.69128288e+08
2.56235218e+01 4.49158049e+00 -1.33490965e-01 1.80683312e+08
2.56066284e+01 4.31712389e+00 -1.46696448e-01 -1.18867977e+37
2.66020412e+01 1.79486775e+00 -1.54234663e-01 -1.39017702e+37
2.49048424e+01 1.83680034e+00 -1.09561786e-01 -1.41454785e+37
2.32624760e+01 2.55065155e+00 -3.99633721e-02 -1.55707843e+37
2.32212563e+01 2.35187078e+00 -4.56792712e-02 -1.13873611e+37
2.33776093e+01 1.82457674e+00 -5.80183268e-02 -1.15544958e+37
2.41411400e+01 2.77073550e+00 -6.74982816e-02 -1.46491491e+37
2.34086552e+01 2.69345212e+00 -4.36957702e-02 -1.34841034e+37
2.59703026e+01 4.35410213e+00 -1.32994249e-01 1.66899888e+08
2.25769196e+01 3.55750680e+00 -1.05548166e-01 1.55357408e+08
2.58827057e+01 4.24810648e+00 -1.44703582e-01 -1.20536015e+37
2.34651127e+01 1.78919268e+00 -6.21858016e-02 -1.10524580e+37
2.54274139e+01 4.49308109e+00 -1.37610137e-01 1.79630608e+08
2.60223484e+01 4.20510340e+00 -1.44736096e-01 -1.17203210e+37
2.29864044e+01 2.74548268e+00 -2.96867974e-02 1.77574512e+08
2.61554031e+01 2.94405627e+00 -1.53773412e-01 -1.48175780e+37
2.62261906e+01 2.00507712e+00 -1.51419163e-01 -1.37346279e+37
2.35121040e+01 2.29951739e+00 -6.29798546e-02 -1.47331766e+37
2.33318348e+01 2.07477880e+00 -5.70511892e-02 -1.45696243e+37
2.40394783e+01 2.68624926e+00 -6.81072176e-02 -1.35593752e+37
2.63398972e+01 1.75247228e+00 -1.56934097e-01 -1.48185503e+37
2.21793919e+01 1.95777047e+00 -9.30024404e-03 1.94400816e+08
2.65440655e+01 2.32503557e+00 -1.54058918e-01 -1.13870366e+37
2.39907684e+01 2.74274564e+00 -6.27862960e-02 -1.18046945e+37
2.46864166e+01 1.75562608e+00 -1.02180012e-01 -1.49843831e+37
2.65736332e+01 2.10638547e+00 -1.50254786e-01 -1.38138206e+37
2.63230515e+01 3.74341130e+00 -1.54420882e-01 -1.46536936e+37
2.57050648e+01 4.47684193e+00 -1.37054130e-01 1.78606512e+08
2.54050083e+01 1.53405452e+00 -1.19811356e-01 -1.41490381e+37
2.62250099e+01 2.21852160e+00 -1.58454344e-01 -1.44797326e+37
2.57582798e+01 3.74060607e+00 -1.35974750e-01 -1.39786849e+37
2.18750725e+01 4.15777779e+00 -1.19455859e-01 1.77488368e+08
2.59841785e+01 3.88763309e+00 -1.52903080e-01 -1.29752494e+37
2.34943924e+01 2.86044216e+00 -4.08914983e-02 -1.48175704e+37
2.62701263e+01 2.37244558e+00 -1.54464453e-01 -1.25572568e+37
2.36639462e+01 2.07603312e+00 -6.75726309e-02 -1.48169074e+37
2.41564674e+01 1.76488614e+00 -8.48850459e-02 -1.49843539e+37
2.58554859e+01 4.12206221e+00 -1.43581212e-01 -1.38949477e+37
2.48598366e+01 1.60822177e+00 -1.09295279e-01 -1.34782608e+37
2.58126812e+01 4.30081606e+00 -1.37211889e-01 1.74256432e+08
2.42731400e+01 2.34622955e+00 -7.81433135e-02 -1.12202341e+37
2.40672264e+01 2.02214456e+00 -8.03754106e-02 -1.34814895e+37
2.36960087e+01 2.18476319e+00 -6.35501444e-02 -1.24754782e+37
2.62868137e+01 4.08954716e+00 -1.40647054e-01 -1.27237349e+37
2.62335587e+01 1.82578778e+00 -1.53969735e-01 -1.17251913e+37
2.63244934e+01 1.86807692e+00 -1.52990922e-01 -1.19747473e+37
2.33822098e+01 4.25593901e+00 -4.29000258e-02 1.78561632e+08
2.20521145e+01 4.17727900e+00 -1.11551672e-01 1.90103952e+08
2.57925415e+01 3.63004470e+00 -1.40667811e-01 -1.30638493e+37
2.57611790e+01 4.24916267e+00 -1.45933464e-01 1.86925568e+08
2.49184151e+01 2.49778342e+00 -9.53643098e-02 -1.42269200e+37
2.28707008e+01 1.47431993e+00 -4.80996631e-02 1.55361488e+08
2.39455509e+01 3.62472200e+00 -4.73956056e-02 -1.40623904e+37
2.34055882e+01 2.30294847e+00 -5.32553978e-02 -1.32319525e+37
2.63986664e+01 2.09265232e+00 -1.53016731e-01 -1.27250342e+37
2.55640526e+01 3.31467962e+00 -1.26963958e-01 -1.51401266e+37
2.22398624e+01 1.95437062e+00 -1.97637510e-02 1.97550784e+08
2.35427647e+01 2.02192807e+00 -6.32081926e-02 -1.37278130e+37
2.37077808e+01 4.10985756e+00 -5.72554357e-02 -1.34795398e+37
2.22804527e+01 2.08230853e+00 -2.37889662e-02 1.83914960e+08
2.24018230e+01 1.68519711e+00 -3.25795598e-02 1.74309856e+08
2.55385342e+01 4.26933908e+00 -1.44210950e-01 -1.45621667e+37
2.41451130e+01 2.56157374e+00 -7.18766600e-02 -1.55691617e+37
2.30758858e+01 4.18568754e+00 -3.50537486e-02 2.06918208e+08
2.48999538e+01 4.14243937e+00 -1.13503613e-01 -1.30628720e+37
2.27316628e+01 2.41607523e+00 -3.37132104e-02 1.42700624e+08
2.39406013e+01 2.86605883e+00 -6.25942424e-02 -1.40627162e+37
2.32570362e+01 2.94391847e+00 -3.53442803e-02 1.50081648e+08
2.49470711e+01 3.90983176e+00 -1.08591795e-01 -1.21418718e+37
2.45482635e+01 2.44721246e+00 -8.77321661e-02 -1.40636986e+37
2.41655960e+01 2.02284956e+00 -8.85930881e-02 -1.24758040e+37
2.63779335e+01 2.69302630e+00 -1.46550119e-01 -1.34831197e+37
2.61249313e+01 4.34911299e+00 -1.39262736e-01 1.49000320e+08
2.31925926e+01 1.43075395e+00 -6.49002567e-02 1.81748064e+08
2.41289139e+01 3.11330509e+00 -5.83896600e-02 -1.48951063e+37
2.32002144e+01 1.72033477e+00 -5.84787726e-02 -1.35636016e+37
2.61621094e+01 1.60481203e+00 -1.50117338e-01 -1.37307426e+37
2.38635654e+01 3.30956459e+00 -4.78557833e-02 1.95367392e+08
2.38661728e+01 1.89153457e+00 -7.70023987e-02 -1.20571750e+37
2.35932903e+01 3.11479974e+00 -4.29873429e-02 -1.45614948e+37
2.58051682e+01 3.24618983e+00 -1.40667722e-01 -1.44823237e+37
2.34271011e+01 2.51926851e+00 -4.59607765e-02 -1.19747460e+37
2.36093674e+01 3.61993432e+00 -4.95404340e-02 -1.43979590e+37
2.31647968e+01 2.97600508e+00 -3.11369598e-02 1.41627456e+08
2.43622360e+01 3.95828342e+00 -8.08626115e-02 -1.49765705e+37
2.61013737e+01 3.13738227e+00 -1.44407377e-01 -1.13042856e+37
2.58697567e+01 4.41537619e+00 -1.35368586e-01 2.49001232e+08
2.65237331e+01 3.76691008e+00 -1.52903780e-01 -1.13033133e+37
2.66159744e+01 2.27733374e+00 -1.55116320e-01 -1.39815967e+37
2.22874889e+01 1.99380195e+00 -2.81135887e-02 2.00717168e+08
2.67587147e+01 1.97197723e+00 -1.49775967e-01 1.93303344e+08
2.65532265e+01 4.13434649e+00 -1.33492962e-01 1.43732816e+08
2.60275154e+01 4.40827751e+00 -1.25238776e-01 1.52146096e+08
2.60438557e+01 4.52024794e+00 -1.44599840e-01 1.97530288e+08
2.67077999e+01 2.17159486e+00 -1.50702760e-01 -1.43995804e+37
2.22465172e+01 3.80287576e+00 -1.32214725e-01 1.77558064e+08
2.24962807e+01 1.76100576e+00 -3.72813456e-02 1.56438688e+08
2.62508392e+01 4.46091032e+00 -1.28983766e-01 1.75464848e+08
2.65846195e+01 2.52451468e+00 -1.53785333e-01 -1.50684232e+37
2.61259212e+01 4.58781099e+00 -1.54485479e-01 1.91259232e+08
2.22646084e+01 2.42015362e+00 -4.17284220e-02 1.72216720e+08
2.66457901e+01 2.81059861e+00 -1.57114536e-01 -1.27250393e+37
2.20723686e+01 3.52939725e+00 -1.39101893e-01 1.75370672e+08
2.33642750e+01 1.89830983e+00 -5.54038547e-02 -1.32335751e+37
2.29389839e+01 4.24889565e+00 -4.74544354e-02 1.62750624e+08
2.65931873e+01 3.93447661e+00 -1.39517412e-01 -1.44008734e+37
2.31297379e+01 2.61493444e+00 -4.21399474e-02 1.90136736e+08
2.66393204e+01 3.64436603e+00 -1.45480797e-01 -1.28077915e+37
2.62332382e+01 4.24067831e+00 -1.27951160e-01 -1.50629064e+37
2.40361843e+01 1.96046853e+00 -7.32099935e-02 -1.40617388e+37
2.49412651e+01 4.35185480e+00 -1.23264059e-01 -1.18884228e+37
2.66608219e+01 1.74844015e+00 -1.51235566e-01 1.42671968e+08
2.24277992e+01 2.66817904e+00 -5.00363149e-02 1.46894944e+08
2.35815277e+01 4.32548046e+00 -6.44912049e-02 -1.40643489e+37
2.59504375e+01 4.44220257e+00 -1.27313584e-01 1.49024880e+08
2.63361168e+01 4.03994703e+00 -1.33619025e-01 -1.14701133e+37
2.50113621e+01 3.71565890e+00 -9.83570665e-02 -1.34792179e+37
2.37583084e+01 1.68202388e+00 -7.41461217e-02 -1.28908670e+37
2.64024677e+01 2.45908380e+00 -1.53042495e-01 -1.24780845e+37
2.29381523e+01 1.48411286e+00 -5.59857972e-02 1.52178816e+08
2.56424809e+01 3.79087329e+00 -1.30222052e-01 -1.33977776e+37
2.41384697e+01 3.84210849e+00 -6.30177334e-02 -1.26406606e+37
2.42977924e+01 1.51141000e+00 -9.06334370e-02 -1.43972961e+37
2.46597958e+01 3.77765846e+00 -8.82553533e-02 -1.34834442e+37
2.40212879e+01 2.38259149e+00 -6.88319355e-02 -1.26422794e+37
2.61580696e+01 4.15987968e+00 -1.43274590e-01 1.52170640e+08
2.56556549e+01 4.12134027e+00 -1.46516204e-01 -1.49775441e+37
2.45589981e+01 4.03250170e+00 -8.82213563e-02 -1.39799715e+37
2.61553001e+01 2.28541350e+00 -1.56628907e-01 -1.33153525e+37
2.47095375e+01 3.59782434e+00 -8.18992332e-02 -1.27325057e+37
2.66858959e+01 1.86424899e+00 -1.52214006e-01 1.65966224e+08
2.31753521e+01 2.00582767e+00 -5.17260060e-02 -1.23077008e+37
2.40124283e+01 4.10244131e+00 -6.89581186e-02 -1.72267860e+37
2.66578121e+01 2.04447412e+00 -1.55272499e-01 -1.45686533e+37
2.55107002e+01 1.53392887e+00 -1.31112128e-01 -1.18926403e+37
2.29301796e+01 4.01806307e+00 -6.27003536e-02 1.77594928e+08
2.66978836e+01 2.66220784e+00 -1.49063781e-01 -1.28100707e+37
2.68431702e+01 1.83961535e+00 -1.45304084e-01 2.09122192e+08
2.67930641e+01 2.51634741e+00 -1.41936362e-01 -1.58183907e+37
2.27053337e+01 1.98302114e+00 -2.81856135e-02 2.00696480e+08
2.67886868e+01 2.18834186e+00 -1.37743175e-01 -1.69889697e+37
2.68152847e+01 2.67655778e+00 -1.39185637e-01 -1.40653288e+37
2.25468788e+01 4.27630281e+00 -7.22738132e-02 1.53182304e+08
2.26984310e+01 4.22978973e+00 -5.74755818e-02 1.43708240e+08
2.68609715e+01 2.23632860e+00 -1.36095673e-01 -1.30609223e+37
2.59572334e+01 1.52155852e+00 -1.40508682e-01 -1.53179565e+37
2.68578644e+01 1.74076879e+00 -1.32818669e-01 1.91222224e+08
2.67678604e+01 3.90839005e+00 -1.29836619e-01 -1.33906357e+37
2.67752342e+01 1.76450932e+00 -1.38803393e-01 1.40554304e+08
2.67046776e+01 3.68304682e+00 -1.33510664e-01 -1.38180304e+37
2.67081337e+01 2.76602960e+00 -1.43360123e-01 -1.37333298e+37
2.67865086e+01 1.90471601e+00 -1.36964470e-01 -1.53974787e+37
2.66138401e+01 4.31972170e+00 -1.15168817e-01 1.56385440e+08
2.67347240e+01 3.78770041e+00 -1.35562673e-01 -1.32312971e+37
2.43938637e+01 4.42125702e+00 -1.13095984e-01 1.73371728e+08
2.65621605e+01 1.62387657e+00 -1.54152438e-01 1.55373776e+08
2.37685452e+01 2.04302311e+00 -6.71058744e-02 -1.20565196e+37
2.50342922e+01 4.21619940e+00 -1.28707156e-01 -1.14691423e+37
2.45842285e+01 2.60451031e+00 -9.01518241e-02 -1.49811062e+37
2.55842857e+01 1.50588572e+00 -1.28301114e-01 -1.50693955e+37
2.50087547e+01 2.76071572e+00 -1.06364936e-01 -1.34795449e+37
2.67923203e+01 2.26218438e+00 -1.43491939e-01 -1.43966648e+37
2.42298450e+01 2.27906179e+00 -8.63252953e-02 -1.40633791e+37
2.66347733e+01 1.56661808e+00 -1.42131969e-01 1.79622192e+08
2.41157894e+01 2.87208366e+00 -6.88660294e-02 -1.43963326e+37
2.52990303e+01 4.24978876e+00 -1.40456960e-01 -1.50603027e+37
2.67596798e+01 4.12584972e+00 -1.19477041e-01 -1.11361825e+37
2.52465057e+01 3.25015163e+00 -1.16768956e-01 -1.42324457e+37
2.61085110e+01 3.90245366e+00 -1.48165539e-01 -1.18906932e+37
2.68216343e+01 2.42422986e+00 -1.35994211e-01 -1.50661415e+37
2.60290279e+01 4.06691694e+00 -1.38086006e-01 -1.13023360e+37
2.43673592e+01 3.35272050e+00 -7.17402771e-02 -1.18890706e+37
2.37827339e+01 3.62790895e+00 -4.58993576e-02 -1.40623904e+37
2.50249729e+01 2.91787958e+00 -1.01880960e-01 -1.31430166e+37
2.32863789e+01 4.27976370e+00 -4.28682938e-02 1.78594336e+08
2.68120499e+01 3.61392140e+00 -1.41096681e-01 -1.39789878e+37
2.28029785e+01 3.69760323e+00 -9.42704752e-02 1.63840272e+08
2.67753105e+01 2.35214496e+00 -1.37353659e-01 -1.41490330e+37
2.46284447e+01 2.46450186e+00 -9.13145021e-02 -1.28944430e+37
2.48564434e+01 4.31891203e+00 -1.24310344e-01 -1.45618358e+37
2.49363174e+01 3.33203793e+00 -1.01660341e-01 -1.13880127e+37
2.46592007e+01 1.97627664e+00 -9.56171751e-02 -1.19740957e+37
2.26003475e+01 4.21217775e+00 -6.52647614e-02 1.63770608e+08
2.50684052e+01 4.14547443e+00 -1.25532061e-01 -1.32222030e+37
2.68149242e+01 3.77365923e+00 -1.30070001e-01 -1.43194294e+37
2.67952061e+01 4.25957823e+00 -1.11643478e-01 2.01786400e+08
2.65387802e+01 4.12493896e+00 -1.18751071e-01 -1.13873624e+37
2.52232056e+01 2.28306603e+00 -1.10922560e-01 -1.33082029e+37
2.34317589e+01 2.00055528e+00 -6.19789734e-02 -1.54831744e+37
2.38638268e+01 3.37859130e+00 -5.16924448e-02 -1.10521322e+37
2.34115238e+01 3.81078720e+00 -5.59926964e-02 -1.36515562e+37
2.66192570e+01 4.16400194e+00 -1.17448740e-01 -1.40653174e+37
2.26934299e+01 4.16918421e+00 -7.36086965e-02 1.74330272e+08
2.69691257e+01 3.79014874e+00 -1.31606370e-01 -1.43142256e+37
2.69795246e+01 1.73093379e+00 -1.48121625e-01 1.69144832e+08
2.67067413e+01 4.27010870e+00 -1.11673333e-01 1.79638768e+08
2.68991184e+01 4.32083416e+00 -1.14760414e-01 1.96461488e+08
2.32656975e+01 3.95706129e+00 -4.90711592e-02 1.94429616e+08
2.69197578e+01 4.24152803e+00 -1.10038571e-01 1.78537056e+08
2.68912945e+01 2.12236619e+00 -1.47169143e-01 1.95412896e+08
2.30061817e+01 2.44577813e+00 -4.00583521e-02 1.52170656e+08
2.29018593e+01 2.57024193e+00 -3.82511914e-02 1.74383616e+08
2.69860649e+01 2.48529506e+00 -1.49997264e-01 -1.15528656e+37
2.69581203e+01 1.81053030e+00 -1.52392939e-01 1.88015168e+08
2.48723145e+01 3.77348685e+00 -9.41979066e-02 -1.30609160e+37
2.69609985e+01 2.66421151e+00 -1.46624789e-01 -1.32248055e+37
2.68942471e+01 3.69975638e+00 -1.31992444e-01 -1.48162749e+37
2.69140587e+01 3.96799374e+00 -1.18776470e-01 -1.30586532e+37
2.30173340e+01 1.90128112e+00 -3.82858999e-02 1.50089872e+08
2.68983574e+01 2.74605775e+00 -1.42837405e-01 -1.43161816e+37
2.30853043e+01 2.48377848e+00 -3.76677550e-02 1.59600944e+08
2.68408356e+01 3.93848133e+00 -1.26525193e-01 -1.42356934e+37
2.68365135e+01 4.17291260e+00 -1.13811925e-01 -1.42343941e+37
2.70149841e+01 2.07062554e+00 -1.54395759e-01 1.59584464e+08
2.61566887e+01 2.87012434e+00 -1.49641380e-01 -1.37326757e+37
2.27244892e+01 1.68425226e+00 -3.18637043e-02 1.75382864e+08
2.33634663e+01 4.36053801e+00 -6.03865832e-02 1.67018720e+08
2.68738346e+01 2.50325871e+00 -1.46876171e-01 -1.24754820e+37
2.56791763e+01 4.30343390e+00 -1.37814611e-01 -1.25569323e+37
2.46007156e+01 2.19791508e+00 -8.71855244e-02 -1.29817360e+37
2.68845291e+01 2.98127890e+00 -1.38622090e-01 -1.14681675e+37
2.69450874e+01 2.33782649e+00 -1.51780009e-01 -1.22233247e+37
2.65616970e+01 1.50393856e+00 -1.53548852e-01 1.49041312e+08
2.66602402e+01 4.39949226e+00 -1.17052265e-01 1.79700208e+08
2.34019432e+01 1.52151859e+00 -6.22386336e-02 1.77496400e+08
2.32561626e+01 3.57307673e+00 -6.90988526e-02 1.75423728e+08
2.65950279e+01 2.19719410e+00 -1.51122376e-01 -1.40695463e+37
2.50263252e+01 3.55814719e+00 -9.49834958e-02 -1.29758870e+37
2.67244473e+01 1.48206162e+00 -1.44445181e-01 1.77488208e+08
2.64073601e+01 4.36256075e+00 -1.16935231e-01 1.57425792e+08
2.69729214e+01 1.99297512e+00 -1.55931547e-01 1.64888704e+08
2.26013126e+01 2.31033182e+00 -2.30836328e-02 1.77500544e+08
2.68833733e+01 3.46508312e+00 -1.36868626e-01 -1.17183726e+37
2.69294643e+01 4.10364771e+00 -1.11630775e-01 1.53239680e+08
2.56611996e+01 3.31047511e+00 -1.32783383e-01 -1.14723837e+37
2.34871426e+01 2.08879495e+00 -5.69746457e-02 -1.11355347e+37
2.64045753e+01 3.99398637e+00 -1.29413694e-01 -1.23940329e+37
2.66530704e+01 3.42780495e+00 -1.35442600e-01 -1.16388655e+37
2.44954872e+01 2.83135581e+00 -6.97237849e-02 -1.48156170e+37
2.28833866e+01 3.26385093e+00 -7.00785816e-02 1.45870944e+08
2.43951359e+01 2.92143631e+00 -7.20041394e-02 -1.20561989e+37
2.34935722e+01 3.63601732e+00 -5.94220832e-02 -1.42295225e+37
2.53827095e+01 2.59097481e+00 -1.17641859e-01 -1.28941248e+37
2.25206165e+01 1.68171000e+00 -1.41307199e-03 1.88076416e+08
2.46415558e+01 2.30866623e+00 -9.00854021e-02 -1.48071617e+37
2.33400326e+01 2.65691304e+00 -4.53885496e-02 -1.26383916e+37
2.64248390e+01 4.26529360e+00 -1.13894135e-01 -1.30648153e+37
2.30091648e+01 2.89179206e+00 -3.56740616e-02 1.61775824e+08
2.31908379e+01 3.79111910e+00 -6.70413524e-02 1.47951776e+08
2.71408730e+01 2.57188225e+00 -1.28579408e-01 -1.18910203e+37
2.55045586e+01 1.43064737e+00 -1.28614277e-01 -1.23099712e+37
2.71682262e+01 3.87982082e+00 -1.32528424e-01 1.52178864e+08
2.53271713e+01 2.78919840e+00 -1.19702451e-01 -1.42399248e+37
2.52365112e+01 4.19502687e+00 -1.32191584e-01 -1.27230909e+37
2.26140347e+01 3.63390470e+00 -9.50221345e-02 1.46903136e+08
2.28525562e+01 3.53953385e+00 -8.02488998e-02 1.93368960e+08
2.33064442e+01 4.34400034e+00 -3.00857332e-02 1.54292384e+08
2.26658630e+01 3.69427538e+00 -7.59041160e-02 1.46919536e+08
2.51019058e+01 3.69119096e+00 -1.15182057e-01 -1.17238919e+37
2.70491600e+01 1.92732418e+00 -1.24321252e-01 -1.63957181e+37
2.51624699e+01 3.60553288e+00 -1.06733494e-01 -1.46546393e+37
2.52448044e+01 4.30652714e+00 -1.35936439e-01 -1.40555780e+37
2.70134048e+01 3.02249575e+00 -1.37916595e-01 -1.20555448e+37
2.59020061e+01 4.00354815e+00 -1.54021665e-01 -1.47270234e+37
2.26377945e+01 2.23564339e+00 -3.14799473e-02 1.61644736e+08
2.28571224e+01 3.61664128e+00 -8.81459564e-02 1.72278000e+08
2.36936893e+01 4.39676332e+00 -7.15886801e-02 -1.26439084e+37
2.53368244e+01 3.68596101e+00 -1.22059330e-01 -1.43230003e+37
2.70670261e+01 4.40168047e+00 -1.59422919e-01 1.58535872e+08
2.70092678e+01 3.42289042e+00 -1.33892700e-01 -1.18046907e+37
2.47237263e+01 2.73318315e+00 -9.17020738e-02 -1.48211515e+37
2.70519867e+01 3.72192574e+00 -1.33459553e-01 -1.18046970e+37
2.51742764e+01 4.25011778e+00 -1.36820808e-01 -1.18033939e+37
2.70398693e+01 2.72414184e+00 -1.32027224e-01 -1.17209700e+37
2.71318474e+01 2.29589868e+00 -1.25001654e-01 1.90190096e+08
2.60957909e+01 2.12150145e+00 -1.43794656e-01 -1.18046958e+37
2.42281933e+01 2.85562444e+00 -7.17938840e-02 -1.43145489e+37
2.47911339e+01 4.21358109e+00 -1.06677115e-01 -1.37310607e+37
2.67810097e+01 1.43558812e+00 -1.15946934e-01 1.71237728e+08
2.41295681e+01 3.37701273e+00 -6.29646182e-02 -1.48951063e+37
2.34519062e+01 3.88491654e+00 -3.63637842e-02 -1.42360078e+37
2.67067280e+01 2.54283905e+00 -1.37743756e-01 -1.14727095e+37
2.27959709e+01 3.91845775e+00 -6.90684393e-02 1.58544032e+08
2.71616344e+01 4.16167068e+00 -1.22856393e-01 1.78602352e+08
2.31771278e+01 3.87358451e+00 -4.68954928e-02 1.77512880e+08
2.37076092e+01 2.38943768e+00 -6.75967932e-02 -1.73111621e+37
2.49322052e+01 3.14817095e+00 -9.73153263e-02 -1.14720630e+37
2.67271442e+01 1.66543114e+00 -1.27375022e-01 -1.19737699e+37
2.31015205e+01 3.55913115e+00 -7.07300007e-02 1.69148976e+08
2.51833839e+01 1.55822778e+00 -1.19735949e-01 -1.18076139e+37
2.32332706e+01 3.66189218e+00 -6.74976930e-02 1.85938480e+08
2.69977264e+01 2.16326189e+00 -1.31080270e-01 -1.28103864e+37
2.64186192e+01 2.18021107e+00 -1.48939997e-01 -1.33156706e+37
2.27951412e+01 3.15976620e+00 -5.82835563e-02 1.41635680e+08
2.68062859e+01 2.83963966e+00 -1.37356550e-01 -1.38962483e+37
2.50480423e+01 3.90391898e+00 -1.22268908e-01 -1.28061714e+37
2.28992634e+01 3.68506718e+00 -8.94386619e-02 1.74367056e+08
2.70872002e+01 4.24799967e+00 -1.17553286e-01 1.84914656e+08
2.70106163e+01 1.81070924e+00 -1.19839102e-01 1.46903104e+08
2.70652122e+01 1.65745115e+00 -1.15079261e-01 1.59547584e+08
2.68426208e+01 4.02791786e+00 -1.29406184e-01 -1.48152861e+37
2.33670483e+01 4.09972191e+00 -2.91143581e-02 1.77484160e+08
2.65609341e+01 4.40437365e+00 -1.50014356e-01 1.64917664e+08
2.70662804e+01 2.20077825e+00 -1.29689023e-01 1.81732032e+08
2.27317066e+01 3.72982454e+00 -8.94588232e-02 1.72245184e+08
2.38032093e+01 3.71000099e+00 -4.55507413e-02 -1.40666053e+37
2.66769180e+01 3.11491656e+00 -1.43953770e-01 -1.18900454e+37
2.42528934e+01 3.72765970e+00 -6.67200238e-02 -1.21408995e+37
2.45766468e+01 1.48179507e+00 -1.11736275e-01 -1.14749824e+37
2.30894337e+01 2.94992542e+00 -3.54828313e-02 1.61735104e+08
2.66760864e+01 3.33749652e+00 -1.39446869e-01 -1.20584718e+37
2.44037361e+01 3.89658403e+00 -8.58786553e-02 -1.13033108e+37
2.38525658e+01 2.38739157e+00 -7.09647387e-02 -1.39864581e+37
2.66528912e+01 1.96530485e+00 -1.43937171e-01 -1.18887448e+37
2.47571735e+01 1.46701050e+00 -1.13238506e-01 -1.18890706e+37
2.38689880e+01 4.10530329e+00 -6.38078377e-02 -1.39033814e+37
2.37591038e+01 3.51581144e+00 -4.72579375e-02 -1.26481208e+37
2.45650272e+01 3.87049961e+00 -8.52958784e-02 -1.38141362e+37
2.34939594e+01 3.24967051e+00 -4.34170030e-02 -1.20571725e+37
2.60348072e+01 1.49247754e+00 -1.50577724e-01 -1.40607703e+37
2.29061375e+01 2.90898681e+00 -3.22583243e-02 1.56475568e+08
2.47881298e+01 3.83124399e+00 -9.83651429e-02 -1.28989787e+37
2.31647472e+01 3.07010818e+00 -3.90406623e-02 1.44797776e+08
2.32927647e+01 3.73307776e+00 -6.21169172e-02 1.73294064e+08
2.38255005e+01 3.29868555e+00 -5.86005375e-02 -1.46413429e+37
2.68441200e+01 1.83696222e+00 -1.45285577e-01 -1.59852034e+37
2.42321167e+01 2.21117616e+00 -7.88247883e-02 -1.70730187e+37
2.35634155e+01 4.24000025e+00 -5.34503572e-02 -1.28097412e+37
2.44922085e+01 2.33911443e+00 -9.01685730e-02 -1.15548140e+37
2.42191811e+01 2.69140291e+00 -7.45429769e-02 -1.43194243e+37
2.71719589e+01 2.66401625e+00 -1.31399661e-01 -1.51524774e+37
2.39622211e+01 1.94866514e+00 -7.28801042e-02 -1.67319244e+37
2.35530071e+01 1.77341139e+00 -5.55873699e-02 -1.56528710e+37
2.71700382e+01 3.77564049e+00 -1.17575169e-01 1.89141664e+08
2.71773987e+01 3.35481739e+00 -1.30343124e-01 -1.12192605e+37
2.40275669e+01 3.04195428e+00 -6.23997748e-02 -1.15538379e+37
2.35743675e+01 2.15528584e+00 -5.06009646e-02 -1.59835947e+37
2.28793449e+01 4.07067823e+00 -2.63941828e-02 1.82838032e+08
2.36526928e+01 2.51902628e+00 -5.91281690e-02 -1.22220279e+37
2.71597404e+01 1.94468868e+00 -1.33338988e-01 1.80634000e+08
2.44071922e+01 2.83175707e+00 -7.88353831e-02 -1.23070543e+37
2.69599609e+01 1.73870909e+00 -1.32617027e-01 -1.36522103e+37
2.71621952e+01 3.08756757e+00 -1.22099139e-01 -1.13029863e+37
2.66197662e+01 1.38535118e+00 -1.44098312e-01 -1.13889862e+37
2.69601364e+01 1.38738811e+00 -1.24056876e-01 1.73371904e+08
2.68804760e+01 2.13005590e+00 -1.36494815e-01 -1.55636576e+37
2.31183128e+01 4.30227900e+00 -2.28873026e-02 1.67026976e+08
2.72634525e+01 2.19342518e+00 -1.31003559e-01 1.82756064e+08
2.68613510e+01 1.74086881e+00 -1.34949505e-01 -1.48162520e+37
2.47597561e+01 2.38455105e+00 -9.10951719e-02 -1.27240594e+37
2.63330383e+01 1.38489544e+00 -1.50774553e-01 -1.49850308e+37
2.68665943e+01 1.38548994e+00 -1.31033003e-01 1.85946512e+08
2.61081924e+01 1.38321495e+00 -1.47119299e-01 -1.23112756e+37
2.69477863e+01 1.81617022e+00 -1.41926736e-01 -1.48110686e+37
2.71755562e+01 2.47336078e+00 -1.36821494e-01 -1.23904594e+37
2.29665813e+01 4.22508240e+00 -1.64328851e-02 1.61702080e+08
2.30912533e+01 4.38798094e+00 -2.22965870e-02 1.63786960e+08
2.32159424e+01 4.41365290e+00 -3.79345194e-02 1.74412320e+08
2.71689186e+01 3.96094275e+00 -1.08811677e-01 1.57446336e+08
2.40065956e+01 2.60287213e+00 -6.33647218e-02 -1.25556406e+37
2.38046608e+01 2.59398270e+00 -5.32795563e-02 -1.26396896e+37
2.38519421e+01 1.60425198e+00 -7.52466321e-02 -1.40669349e+37
2.66420403e+01 1.56627870e+00 -1.45900950e-01 -1.47315552e+37
2.71855068e+01 4.23556948e+00 -1.12319283e-01 1.42655584e+08
2.69545403e+01 1.99964654e+00 -1.40371695e-01 -1.31478806e+37
2.67807560e+01 1.75880849e+00 -1.42450586e-01 -1.10527825e+37
2.31710262e+01 2.19396448e+00 -3.64237167e-02 -1.17225913e+37
2.33468819e+01 1.98979592e+00 -4.89560664e-02 -1.19724706e+37
2.34751740e+01 1.71837366e+00 -5.21248057e-02 -1.46572443e+37
2.32154922e+01 1.65745175e+00 -4.98744249e-02 1.86040848e+08
2.39427490e+01 2.04276180e+00 -6.90370053e-02 -1.19734429e+37
2.36496849e+01 1.97474253e+00 -5.63218184e-02 -1.45569554e+37
2.66937618e+01 1.79360342e+00 -1.42738268e-01 -1.18877776e+37
2.70055714e+01 2.07889104e+00 -1.43230900e-01 -1.28126593e+37
2.53991165e+01 4.11815453e+00 -1.34859562e-01 -1.46449101e+37
2.33393517e+01 4.42426300e+00 -5.00906110e-02 1.75477104e+08
2.71700840e+01 2.20312762e+00 -1.31869406e-01 -1.25549941e+37
2.61625462e+01 3.59586787e+00 -1.46686360e-01 -1.29794567e+37
2.28901501e+01 4.33442450e+00 -3.96470651e-02 1.49049440e+08
2.63309441e+01 2.41780329e+00 -1.57345563e-01 -1.18880970e+37
2.43542767e+01 2.52620983e+00 -7.63444901e-02 -1.50609479e+37
2.40760803e+01 1.84037161e+00 -8.44092220e-02 -1.45602107e+37
2.58082619e+01 1.41148973e+00 -1.40973002e-01 -1.24771020e+37
2.70227680e+01 2.58100486e+00 -1.31675780e-01 -1.26383916e+37
2.34963245e+01 4.42018414e+00 -6.02752566e-02 -1.11355360e+37
2.31359596e+01 1.70310557e+00 -3.94643992e-02 1.44834640e+08
2.30867195e+01 4.02627945e+00 -4.69649211e-02 1.52150128e+08
2.28330193e+01 2.16484904e+00 5.58882207e-03 1.47955824e+08
2.50272961e+01 4.07633877e+00 -1.16677403e-01 -1.10518064e+37
2.29634342e+01 1.72368312e+00 -2.68401504e-02 1.55345040e+08
2.72976646e+01 3.71932411e+00 -1.15464777e-01 1.48992096e+08
2.65239868e+01 1.51543319e+00 -1.43988594e-01 -1.41535864e+37
2.38543282e+01 4.42735577e+00 -7.88032487e-02 -1.41535890e+37
2.58293095e+01 1.59164369e+00 -1.43192977e-01 -1.18903674e+37
2.31731434e+01 3.52738905e+00 -6.29656762e-02 1.42696528e+08
2.60948792e+01 2.56209517e+00 -1.48654208e-01 -1.19744190e+37
2.45780602e+01 1.67616069e+00 -1.02367364e-01 -1.16427598e+37
2.54268036e+01 3.89500570e+00 -1.26308620e-01 -1.33968092e+37
2.41737518e+01 4.41956711e+00 -1.00674041e-01 -1.11365070e+37
2.46601315e+01 4.17760181e+00 -1.04887135e-01 -1.58926864e+37
2.49080124e+01 1.70106614e+00 -1.12380326e-01 -1.16378920e+37
2.71740685e+01 1.56755447e+00 -1.22671850e-01 1.71213104e+08
2.60327244e+01 3.70954394e+00 -1.46645203e-01 -1.33117663e+37
2.51064529e+01 1.82189572e+00 -1.16489708e-01 -1.26464969e+37
2.65633202e+01 1.61384952e+00 -1.55607730e-01 -1.14727108e+37
2.45601559e+01 3.51884198e+00 -8.15070421e-02 -1.12215321e+37
2.46248932e+01 2.93474460e+00 -8.89546722e-02 -1.31495324e+37
2.65992146e+01 2.97079492e+00 -1.42472461e-01 -1.43998922e+37
2.63320179e+01 3.58789206e+00 -1.42114922e-01 -1.25647258e+37
2.33003445e+01 2.71761465e+00 -3.67617309e-02 -1.26409852e+37
2.43019123e+01 1.66295266e+00 -9.06154215e-02 -1.38955853e+37
2.68087692e+01 1.68606532e+00 -1.35406390e-01 -1.25611587e+37
2.54056759e+01 3.22157788e+00 -1.20335378e-01 -1.18916693e+37
2.37150002e+01 4.20381975e+00 -6.30718097e-02 -1.23067234e+37
2.39206333e+01 2.78286242e+00 -6.37559667e-02 -1.41500078e+37
2.72524166e+01 3.83487177e+00 -1.15354799e-01 1.77500592e+08
2.48331356e+01 2.70935297e+00 -9.85066891e-02 -1.12225044e+37
2.43685665e+01 1.98042262e+00 -8.99566114e-02 -1.19727964e+37
2.34707546e+01 2.93419385e+00 -4.29525599e-02 -1.43083881e+37
2.45531788e+01 2.96803379e+00 -8.14735815e-02 -1.13896340e+37
2.37087402e+01 4.32565260e+00 -6.90090209e-02 -1.12212064e+37
2.42566357e+01 4.27532959e+00 -8.14158469e-02 -1.53196145e+37
2.54172955e+01 1.63071072e+00 -1.21956632e-01 -1.52335981e+37
2.72908020e+01 1.91655695e+00 -1.31936103e-01 -1.68143508e+37
2.69155064e+01 4.23400497e+00 -1.02682777e-01 1.75383104e+08
2.41293049e+01 4.30075502e+00 -7.83662722e-02 -1.50716798e+37
2.69869080e+01 1.30247724e+00 -1.13915883e-01 -1.24715852e+37
2.74725628e+01 2.73932290e+00 -1.42298773e-01 -1.45660596e+37
2.58091717e+01 4.29621029e+00 -1.30177677e-01 -1.40555768e+37
2.29757404e+01 3.77401543e+00 -9.51226726e-02 1.76534064e+08
2.73685055e+01 3.81312108e+00 -1.37161687e-01 -1.44826546e+37
2.73894482e+01 2.49038196e+00 -1.41703308e-01 -1.23060807e+37
2.73597031e+01 2.63857102e+00 -1.44999623e-01 -1.46484874e+37
2.73152637e+01 2.71806669e+00 -1.39874652e-01 -1.16372429e+37
2.73990097e+01 1.98628318e+00 -1.28135070e-01 -1.42324343e+37
2.73580856e+01 3.42293882e+00 -1.36764675e-01 -1.16372391e+37
2.73584805e+01 3.02138042e+00 -1.41154230e-01 -1.16372391e+37
2.73450184e+01 2.15170574e+00 -1.36238620e-01 -1.23914291e+37
2.67314472e+01 4.26741076e+00 -1.29964784e-01 1.41606960e+08
2.60250092e+01 1.65523064e+00 -1.40221179e-01 -1.42282244e+37
2.74751415e+01 3.70351434e+00 -1.37063742e-01 -1.40656482e+37
2.35935040e+01 3.84800673e+00 -3.29177640e-02 -1.16391913e+37
2.38319473e+01 1.53893256e+00 -5.59321828e-02 1.87031984e+08
2.66930332e+01 1.33954322e+00 -1.32518083e-01 -1.19715047e+37
2.73267822e+01 1.79963934e+00 -1.21480539e-01 -1.13880102e+37
2.33725491e+01 3.96808553e+00 -3.71980444e-02 1.90091776e+08
2.29239178e+01 1.79216373e+00 -3.98744382e-02 1.60674016e+08
2.56425819e+01 2.34911966e+00 -1.23400748e-01 -1.46432862e+37
2.72641449e+01 2.60008073e+00 -1.41958266e-01 -1.38125136e+37
2.74870014e+01 3.46707964e+00 -1.40569031e-01 -1.15512455e+37
2.64781532e+01 1.82529473e+00 -1.44959316e-01 -1.51440259e+37
2.66078796e+01 4.25499296e+00 -1.27727643e-01 1.75456784e+08
2.52017651e+01 1.42746055e+00 -1.12133496e-01 -1.21421963e+37
2.71810055e+01 3.57663417e+00 -1.39553517e-01 -1.13870391e+37
2.74837379e+01 2.98093963e+00 -1.41767904e-01 -1.15522165e+37
2.60152779e+01 3.54957676e+00 -1.36718869e-01 -1.29755625e+37
2.30612068e+01 2.31463456e+00 -4.66752052e-02 1.94290080e+08
2.37582111e+01 4.46473074e+00 -7.29414746e-02 -1.22242995e+37
2.60092468e+01 2.91210890e+00 -1.36661798e-01 -1.28928103e+37
2.62223225e+01 1.32885754e+00 -1.37746662e-01 -1.19776692e+37
2.58333416e+01 1.85409462e+00 -1.34020567e-01 -1.53153692e+37
2.62573929e+01 3.81546259e+00 -1.37161419e-01 -1.29820567e+37
2.29630051e+01 2.29328990e+00 -4.12701368e-02 1.49016688e+08
2.61053238e+01 3.32225180e+00 -1.44608095e-01 -1.13049359e+37
2.69138088e+01 1.32097864e+00 -1.20885134e-01 -1.24741839e+37
2.73530979e+01 2.07658529e+00 -1.31672680e-01 -1.23940265e+37
2.69163914e+01 2.44487596e+00 -1.43336207e-01 -1.34759714e+37
2.71660862e+01 2.03443408e+00 -1.43183574e-01 -1.41526179e+37
2.41233482e+01 3.61477947e+00 -5.67188486e-02 -1.39799728e+37
2.52209721e+01 2.44416571e+00 -1.07313134e-01 -1.59021292e+37
2.75610046e+01 2.50933218e+00 -1.33001193e-01 -1.51488975e+37
2.52307873e+01 4.02980995e+00 -1.27574101e-01 -1.47331994e+37
2.68386116e+01 1.28664696e+00 -1.25800163e-01 -1.60686034e+37
2.75619221e+01 3.92059016e+00 -1.11068800e-01 -1.51514949e+37
2.51831036e+01 4.42861986e+00 -1.47804722e-01 -1.83934758e+37
2.75141296e+01 1.82750928e+00 -1.21283747e-01 -1.59845505e+37
2.75361671e+01 3.76578403e+00 -1.13717176e-01 -1.42357036e+37
2.72081947e+01 3.87255621e+00 -1.23939022e-01 -1.18069687e+37
2.75353432e+01 2.67091036e+00 -1.29284993e-01 -1.39819263e+37
2.34393578e+01 4.51449680e+00 -6.93104938e-02 -1.53147442e+37
2.55131130e+01 2.52726507e+00 -1.20750822e-01 -1.45680156e+37
2.71808395e+01 3.78012466e+00 -1.25208840e-01 -1.51524774e+37
2.48533726e+01 2.63785243e+00 -9.13761556e-02 -1.32267728e+37
2.67601147e+01 1.96830750e+00 -1.54836372e-01 -1.48970838e+37
2.75393887e+01 2.18506813e+00 -1.16479687e-01 -1.48191981e+37
2.36503601e+01 1.77429557e+00 -6.06485754e-02 -1.37359412e+37
2.68354111e+01 4.27563715e+00 -1.60706267e-01 1.71229600e+08
2.51530552e+01 3.45641565e+00 -1.07354499e-01 -1.18050266e+37
2.48813572e+01 2.95277071e+00 -9.80796665e-02 -1.50687592e+37
2.73842831e+01 1.37728727e+00 -1.09481029e-01 -1.35684871e+37
2.55851707e+01 2.15432215e+00 -1.23465531e-01 -1.19705248e+37
2.58613968e+01 2.22519970e+00 -1.35566622e-01 -1.17190191e+37
2.69648781e+01 1.37885690e+00 -1.29358515e-01 -1.34013588e+37
2.56067772e+01 1.96603799e+00 -1.31938070e-01 -1.52342573e+37
2.54913025e+01 2.42802167e+00 -1.23037107e-01 -1.20558744e+37
2.58854523e+01 2.46369195e+00 -1.38112426e-01 -1.45598938e+37
2.71629581e+01 1.94345546e+00 -1.36680365e-01 -1.40610923e+37
2.76451492e+01 3.67463493e+00 -1.17547244e-01 -1.37333298e+37
2.51778927e+01 3.93610382e+00 -1.21941343e-01 -1.38115540e+37
2.74793377e+01 2.23964167e+00 -1.25075176e-01 -1.41474256e+37
2.50890656e+01 4.35983276e+00 -1.30361453e-01 -1.35587262e+37
2.51528549e+01 4.01021671e+00 -1.24148421e-01 -1.46432951e+37
2.74558640e+01 2.12448144e+00 -1.15078509e-01 -1.56470601e+37
2.48499432e+01 4.06130743e+00 -1.08193047e-01 -1.42317954e+37
2.74867096e+01 1.72751021e+00 -1.12290666e-01 -1.53176395e+37
2.74062195e+01 1.70924616e+00 -1.14901468e-01 -1.19724706e+37
2.53077946e+01 3.89817452e+00 -1.21396504e-01 -1.31475675e+37
2.68620605e+01 1.38573205e+00 -1.33830234e-01 -1.54841176e+37
2.76302452e+01 3.77783537e+00 -1.17328882e-01 -1.31482216e+37
2.45149708e+01 4.16489792e+00 -1.01818517e-01 -1.54033289e+37
2.51627865e+01 2.22572684e+00 -1.05013624e-01 -1.23044569e+37
2.40281582e+01 4.31584644e+00 -8.82051736e-02 -1.25592065e+37
2.73535347e+01 1.28856516e+00 -1.07081935e-01 -1.25553123e+37
2.48133621e+01 3.92229509e+00 -1.02635741e-01 -1.31459538e+37
2.53980484e+01 2.70872617e+00 -1.24125719e-01 -1.40649954e+37
2.42520771e+01 4.19755936e+00 -9.35308114e-02 -1.17225913e+37
2.36456890e+01 4.48253250e+00 -7.78506994e-02 -1.36489411e+37
2.44632282e+01 3.94891310e+00 -8.94692019e-02 -1.51531188e+37
2.52576008e+01 3.63382292e+00 -1.17405362e-01 -1.31485525e+37
2.55009079e+01 2.20027232e+00 -1.22044161e-01 -1.46449202e+37
2.74382954e+01 3.96289778e+00 -1.09764613e-01 -1.28081198e+37
2.71810799e+01 3.96768951e+00 -1.18483089e-01 -1.24738606e+37
2.51048775e+01 3.81435704e+00 -1.06056206e-01 -1.40594811e+37
2.74260502e+01 2.33114028e+00 -1.36962846e-01 -1.21408970e+37
2.40445385e+01 4.39991426e+00 -9.34546813e-02 -1.20584706e+37
2.56208897e+01 2.57256532e+00 -1.32560685e-01 -1.24745122e+37
2.38662853e+01 2.89479494e+00 -5.98399229e-02 -1.14704404e+37
2.63230095e+01 1.26541531e+00 -1.52455106e-01 -1.16401649e+37
2.53981609e+01 2.51301408e+00 -1.21682413e-01 -1.17222731e+37
2.47958755e+01 2.56778407e+00 -9.68835950e-02 -1.18066442e+37
2.47188301e+01 4.05043554e+00 -1.00734450e-01 -1.19721499e+37
2.54092541e+01 2.89725494e+00 -1.18992686e-01 -1.23044569e+37
2.57646980e+01 4.24230242e+00 -1.45369172e-01 -1.50625667e+37
2.54362373e+01 2.78089166e+00 -1.20689049e-01 -1.64833432e+37
2.72683411e+01 2.19433188e+00 -1.33656010e-01 -1.43122975e+37
2.56917477e+01 1.79313958e+00 -1.33045390e-01 -1.21418744e+37
2.48754749e+01 2.87825274e+00 -9.26377773e-02 -1.38160757e+37
2.68016071e+01 1.41829908e+00 -1.40863135e-01 -1.37343047e+37
2.50110321e+01 2.40357137e+00 -9.98621359e-02 -1.10518064e+37
2.49961853e+01 2.31656170e+00 -1.04153961e-01 -1.29788369e+37
2.46411343e+01 4.01193380e+00 -9.72783044e-02 -1.25611612e+37
2.35497952e+01 4.47711897e+00 -6.70096874e-02 -1.24751549e+37
2.70268402e+01 1.79789066e+00 -1.36267781e-01 -1.18066404e+37
2.46184196e+01 4.29308319e+00 -1.08767033e-01 -1.30654630e+37
2.73152428e+01 3.72285008e+00 -1.25338033e-01 -1.18050203e+37
2.50687180e+01 2.21824360e+00 -9.66213346e-02 -1.23891562e+37
2.43884010e+01 4.41827679e+00 -1.11149326e-01 -1.39020795e+37
2.56877289e+01 1.35004759e+00 -1.36220589e-01 -1.27299032e+37
2.56850338e+01 1.99047565e+00 -1.31277919e-01 -1.40666142e+37
2.70751743e+01 2.19713521e+00 -1.44265786e-01 -1.47341691e+37
2.72726135e+01 1.21705639e+00 -9.71756056e-02 -1.31459436e+37
2.33517761e+01 4.52253866e+00 -5.33056743e-02 1.52166496e+08
2.71894627e+01 2.86965895e+00 -1.38344392e-01 -1.13873637e+37
2.74602146e+01 2.41824031e+00 -1.25383079e-01 -1.33140455e+37
2.76441536e+01 3.90089059e+00 -1.12809986e-01 -1.13886579e+37
2.54601059e+01 4.08776808e+00 -1.42002612e-01 -1.23047839e+37
2.40760841e+01 4.48766136e+00 -1.04817934e-01 -1.42317878e+37
2.74214954e+01 1.79275370e+00 -1.20665118e-01 -1.36479840e+37
2.48261929e+01 2.80857849e+00 -8.89430419e-02 -1.33974468e+37
