# .PCD v.7 - Point Cloud Data file format
VERSION .7
FIELDS x y z rgb
SIZE 4 4 4 4
TYPE F F F F
COUNT 1 1 1 1
WIDTH 1067
HEIGHT 1
VIEWPOINT 0 0 0 1 0 0 0
POINTS 1067
DATA ascii
4.6343411 4.2647599 0.99902668 -1.6047819e+37
4.7663577 4.4644801 1.0166999 -1.5968325e+37
3.6136408 2.8306327 1.0850297 -1.5384828e+37
3.6595149 2.9372995 1.0783139 -1.4637796e+37
3.6501755 2.9995753 1.0746029 -1.5718108e+37
3.7245629 3.0538818 1.0715061 -1.6470698e+37
3.7840571 3.0976853 1.06767 -1.7964452e+37
4.0525786 4.122574 1.8877338 -1.34695e+37
4.5275267 4.1974877 0.98883717 -1.6288565e+37
4.5765964 4.3351188 0.99795219 -1.6641083e+37
4.7302011 4.4540331 1.0139617 -1.680525e+37
3.6004546 3.0385322 1.072408 -1.6138053e+37
3.6187936 3.1104312 1.0682796 -1.6385347e+37
3.6640911 3.1846819 1.0626559 -1.7049319e+37
3.8542412 3.3347077 1.0528127 -1.6395776e+37
3.8861574 3.3739726 1.0498631 -1.5051863e+37
3.5747395 3.6648223 1.7192237 -1.9142173e+37
3.9753087 3.5998699 1.0238021 -1.7643516e+37
4.1099864 3.7376783 1.0054267 -1.5477355e+37
4.2305653 3.9374456 0.99033839 -1.5219007e+37
4.355065 4.0635126 0.98522566 -1.588427e+37
4.398115 4.1663041 0.9789188 -1.6057246e+37
4.5687352 4.3399892 0.99770025 -1.4388245e+37
4.6202957 4.4824164 1.0067644 -1.4223075e+37
3.4159611 2.9618477 1.0774034 -1.4720214e+37
3.7675189 3.3692317 1.0507978 -1.539527e+37
3.866355 3.590868 1.0272511 -1.4553415e+37
4.0294867 3.8082703 0.99917597 -1.4717934e+37
4.1149451 3.8986058 0.99076794 -1.5806413e+37
4.3993078 4.2964319 0.98499422 -1.0633824e+37
4.5216899 4.415901 0.99787779 -1.4881172e+37
4.5182449 4.4575615 0.99954621 -1.2387259e+37
4.5632423 4.5853363 1.0078857 -1.4304182e+37
3.5228311 3.1394621 1.066315 -1.7886537e+37
3.569609 3.3039134 1.0553098 -1.5891457e+37
3.5964553 3.3305816 1.0540072 -1.4386287e+37
3.6384062 3.4043935 1.0486437 -1.4473588e+37
3.8291367 3.5645997 1.0325586 -1.6967825e+37
3.8434702 3.6022322 1.0266601 -1.2382362e+37
3.9442221 3.7232357 1.0113207 -1.3475033e+37
4.028325 3.8129891 0.99986867 -1.689193e+37
4.0323106 3.8288265 0.9986766 -1.3468871e+37
4.0751918 3.9453832 0.98653512 -1.5641209e+37
4.1220242 3.9692999 0.98503343 -1.779798e+37
4.1459588 4.0428123 0.9796479 -1.3641551e+37
4.4175454 4.4909093 0.99413882 -1.663717e+37
4.4841924 4.5724505 1.0017147 -1.4467727e+37
4.4826225 3.1933901 1.3921349 -1.6631628e+37
4.5279474 2.4192613 1.0341468 -1.6380443e+37
4.5721362 2.5272829 1.0412352 -1.3055425e+37
4.3823022 2.4499499 1.0243595 -1.714086e+37
4.3117937 2.6604894 1.0253088 -1.363924e+37
4.2290632 2.5620333 1.0176573 -1.6303547e+37
4.2816687 2.627723 1.0228876 -1.7387127e+37
4.1695658 2.6507071 1.0295506 -1.4716973e+37
4.0449319 2.6989303 1.0439745 -1.4058535e+37
4.107304 2.7869666 1.0460252 -1.7226521e+37
4.0261201 2.694534 1.04529 -1.3552598e+37
4.0400475 2.9102796 1.0613395 -1.5300124e+37
3.8634114 2.8861623 1.0738276 -1.5382249e+37
3.9490279 2.9215475 1.0694275 -1.5218997e+37
3.8367236 2.8585789 1.0745047 -1.8053339e+37
3.9301918 3.0810152 1.068012 -1.6895184e+37
3.7717758 2.9455233 1.0764519 -1.3140126e+37
3.970741 3.3839336 1.1238462 -1.6889336e+37
5.0805853 1.5319109 3.3272654 -1.2302872e+37
5.0887956 1.7686717 2.7158962 -1.5804788e+37
3.8398587 0.93177619 2.6306695 -1.3551269e+37
3.0428144 -0.24501225 5.304391 -1.6810498e+37
5.0301371 3.5979229 3.040356 -1.5725923e+37
3.3787192 1.4832337 2.6966006 -1.671862e+37
4.3739084 2.168214 3.0812997 -1.5974218e+37
4.4863538 3.1459433 1.1436069 -1.4890573e+37
4.5614029 2.792996 1.0495341 -1.5472464e+37
5.1784566 3.159175 2.1096949 -1.5555541e+37
3.9190225 3.2689301 1.3765202 -1.6052033e+37
4.2533839 3.6385712 1.3927022 -1.3466909e+37
3.8484578 3.790127 2.1931077 -1.505448e+37
4.3582837 1.4751863 3.2242001 -1.6635862e+37
3.9853111 2.0965304 2.5072906 -1.5468228e+37
4.6281832 4.1718227 2.4120118 -1.4053972e+37
4.397399 3.8821944 1.0015025 -1.5553269e+37
4.1316516 1.7549391 2.1944984 -1.422405e+37
5.1091306 4.0978172 2.2169166 -1.6720245e+37
4.4162178 3.385729 1.8348619 -1.4392152e+37
3.9681256 3.5536954 2.1313335 -1.2385614e+37
4.4456551 3.9780841 1.189332 -1.7041836e+37
4.0334112 3.8055394 1.4507635 -1.3967982e+37
4.0057756 3.6562989 1.0174202 -1.6637488e+37
5.16858 2.1953892 2.6263831 -1.5306307e+37
3.9779582 3.5424435 2.6747366 -1.5886223e+37
5.3528239 3.6256761 4.0007687 -1.5134611e+37
4.7807884 3.7155888 1.8016787 -1.3470818e+37
4.5277192 4.7691323 2.95128 -1.3390339e+37
3.9696947 3.6220848 1.9648036 -1.5722693e+37
3.8105378 4.557674 3.010065 -1.7801549e+37
4.7055867 2.5046588 2.0570083 -1.5217701e+37
5.4057252 2.9459231 2.5033754 -1.6719939e+37
5.1395464 4.0773751 2.2459181 -1.5717463e+37
4.6451516 3.8767191 2.1935944 -1.7480952e+37
4.1846618 4.2081001 1.9099727 -1.5890771e+37
5.9021068 4.1579842 1.0355578 -1.5641218e+37
6.0920969 4.4517097 1.0347808 -1.663455e+37
5.8311659 4.200528 1.0359387 -1.4724454e+37
6.0862868 4.4603454 1.0345125 -1.7137896e+37
5.0321434 3.3694135 1.0486907 -1.4720883e+37
5.1530579 3.4586376 1.0465775 -1.5719104e+37
5.4450291 3.9121703 1.0376757 -1.4882795e+37
5.5617379 3.9849047 1.0376264 -1.2970421e+37
5.7577219 4.2753287 1.0367839 -1.5055762e+37
5.8531397 4.3181811 1.0362467 -1.0633824e+37
5.847371 4.407901 1.0364507 -1.5808367e+37
5.9798147 4.4746366 1.0358342 -1.6135144e+37
5.1924668 3.6630194 1.0431892 -1.6139369e+37
5.9014186 4.5789536 1.036683 -1.4554397e+37
5.387028 4.0511318 1.0393219 -1.4723804e+37
5.5208975 4.1809198 1.0378649 -1.4806885e+37
5.6535399 4.3846142 1.0379962 -1.4060176e+37
5.7734014 4.4871976 1.0371373 -1.5306312e+37
5.8849055 4.609942 1.0369476 -1.6213645e+37
5.4263445 4.2100627 1.0394417 -1.5725282e+37
5.6977599 4.5388438 1.038283 -1.7304355e+37
5.7545793 4.6884243 1.0368789 -1.5638602e+37
5.1578919 4.0887304 1.026595 -1.3805406e+37
5.5219998 4.4614856 1.0391491 -1.4305175e+37
5.7416534 4.6985734 1.0364829 -1.7217367e+37
5.5816177 4.6238635 1.039199 -1.3968295e+37
5.6846724 4.7527121 1.0354047 -1.5554231e+37
5.3057758 4.4224699 1.0407931 -1.4304186e+37
5.4067645 4.5375434 1.0403594 -1.3470802e+37
5.4881169 4.634411 1.0396478 -1.2716607e+37
5.4885297 4.7109396 1.0401562 -1.4056564e+37
5.5798714 4.7847915 1.0352938 -1.4801014e+37
5.6075344 4.7977268 1.0339187 -1.5310262e+37
5.2432664 4.5564285 1.0419235 -1.4719885e+37
5.3356626 4.6154168 1.0419389 -1.6138718e+37
5.4760263 4.782375 1.038299 -1.5219959e+37
5.5296229 4.9166064 1.0281073 -1.7805434e+37
5.2735513 4.7396091 1.0421927 -1.3315584e+37
5.3756239 4.7795435 1.040254 -1.3388729e+37
5.5041544 4.9413578 1.0277461 -1.4800709e+37
5.120437 4.5832768 1.0429617 -1.3469835e+37
5.2241272 4.6961784 1.0424865 -1.3305015e+37
5.2596763 4.7636573 1.0419853 -1.0633866e+37
5.3110865 4.8790943 1.0364648 -1.421948e+37
5.4002438 4.9086759 1.0322645 -1.4717923e+37
5.401547 4.9498049 1.0295487 -1.7051247e+37
4.9401411 4.4870041 1.0291154 -1.3551944e+37
5.2442402 4.8857799 1.037809 -1.5900931e+37
5.3278935 5.0114715 1.0270208 -1.4637801e+37
5.0240017 4.7582088 1.0439434 -1.4887707e+37
5.0553132 4.8258664 1.0441929 -1.4891242e+37
5.2328259 4.9610413 1.0332863 -1.529883e+37
5.2775519 5.0893454 1.0232739 -1.5473779e+37
4.8455183 4.6557586 1.0311188 -1.4395405e+37
5.0971612 5.0348805 1.0323635 -1.6394159e+37
5.2388358 5.137291 1.0227647 -1.5551969e+37
4.7707625 4.6685976 1.0258921 -2.0120231e+37
5.066814 5.0940502 1.0326955 -1.4142595e+37
5.1371132 5.1535008 1.02725 -1.7222608e+37
5.1528888 5.1707489 1.0252231 -1.8218238e+37
4.9599608 5.1203275 1.0362974 -1.4637469e+37
5.1126909 5.1993803 1.027689 -1.3390016e+37
4.5484748 4.6844433 1.0116051 -1.5380959e+37
4.569909 4.7428671 1.015382 -1.555686e+37
4.6199427 4.7862837 1.0193021 -1.5882323e+37
4.8602648 5.0781461 1.0371939 -1.7078356e+37
5.0583558 5.2990345 1.0280116 -1.2722487e+37
3.8140708 3.9202367 0.9914698 -1.4303527e+37
3.8864981 3.9615287 0.98563885 -1.4051066e+37
4.0777494 4.1893639 0.96460115 -1.5301095e+37
4.1361068 4.2978443 0.96650848 -1.5306968e+37
4.1803089 4.3270582 0.97106003 -1.3636971e+37
4.227681 4.3701319 0.97650473 -1.5306324e+37
4.2586147 4.4319854 0.98241633 -1.2553407e+37
4.327851 4.5315883 0.98991975 -1.41338e+37
4.3969249 4.596822 0.99684757 -1.4722494e+37
4.5779655 4.8600949 1.0152537 -1.4806857e+37
4.5969563 4.9247172 1.0178851 -1.2725085e+37
4.6694227 4.9730327 1.0240608 -1.4222074e+37
4.8943435 5.1797601 1.0334583 -1.5300758e+37
4.060122 1.4194689 2.4013025 -1.5465948e+37
3.2443378 3.4972554 3.6688022 -1.4056259e+37
5.5473442 3.4069034 2.4077439 -1.1556153e+37
4.8912494 2.7849278 2.6083479 -1.5636989e+37
6.324544 3.6582676 1.9169353 -1.4468377e+37
4.6286919 3.0640437 1.0565486 -1.5138545e+37
4.8003445 3.220116 1.0517612 -1.9724694e+37
4.936467 3.3332702 1.0483145 -1.6640434e+37
4.7999639 3.4174102 1.0500674 -1.3473752e+37
4.8550599 3.4057142 1.0497802 -1.5061658e+37
4.6388715 3.2857655 1.0536079 -1.7812282e+37
4.5452786 3.3409557 1.0511519 -1.4714351e+37
4.4995166 3.3647384 1.0483006 -1.3978722e+37
4.3672077 3.3776971 1.0430748 -1.655442e+37
4.3127532 3.4660039 1.0347503 -1.4468399e+37
4.3138343 3.5574499 1.0265184 -1.6386955e+37
4.1931535 3.5688477 1.0239132 -1.3305324e+37
4.1277139 3.7179398 1.0080808 -1.4886054e+37
4.258394 4.0162553 1.0338073 -1.6888697e+37
4.0085318 3.9697277 0.98266016 -1.4385636e+37
4.0757399 4.0535186 0.97682957 -1.5637963e+37
4.7683419 3.4328119 1.7807857 -1.2634514e+37
4.4871341 3.7801025 1.3572555 -1.5301739e+37
4.5380729 1.8702341 2.5912694 -1.5299156e+37
4.6050835 3.7329897 1.0203224 -1.7553318e+37
4.5020023 4.6262232 1.1751523 -1.305705e+37
3.6956151 4.2035178 2.45225 -1.4221453e+37
4.9183029 3.8317987 2.4289472 -1.34728e+37
4.9950624 3.9328382 2.5390081 -1.3387753e+37
4.5132702 4.1400212 1.6635188 -1.463748e+37
4.263348 4.4268882 1.3161611 -1.4551792e+37
5.0835263 3.4783197 1.4513753 -1.3384168e+37
6.3842825 4.1860023 3.5376221 -1.5383859e+37
4.7952131 3.4022783 2.2038386 -1.3385452e+37
3.8856868 3.4459171 1.9163099 -1.4473275e+37
3.7646137 3.7629451 3.520833 -1.5305356e+37
4.035381 3.6340745 1.6018857 -1.4802651e+37
4.6873845 4.6857025 1.4287372 -1.4216887e+37
4.4817092 4.7789455 1.633611 -1.513854e+37
70.287666 -52.879679 120.78237 -1.6129912e+37
5.0825905 1.8418176 3.2921749 -1.730275e+37
4.8125831 3.4716137 1.6539575 -1.6886067e+37
4.9907148 3.5082448 2.5219341 -1.2473587e+37
4.107308 3.8100793 1.3976771 -1.6720901e+37
5.4943353 4.344053 1.6653025 -1.472155e+37
4.4200207 3.1355765 2.4092141 -1.4558286e+37
4.1449082 3.2850872 1.9610907 -1.3223552e+37
4.1015913 3.6072101 1.9106821 -1.4554069e+37
5.730912 4.6685435 3.0419707 -1.6218535e+37
5.3952774 4.6595686 2.9736694 -1.330271e+37
4.5275802 4.4615203 1.9667611 -1.3890099e+37
4.0284616 4.081591 2.1145415 -1.6970457e+37
6.5893062 3.6439252 3.8598563 -1.5389081e+37
5.726314 2.6344665 5.5004388 -1.2142304e+37
5.9528028 4.5301895 3.0367603 -1.5468239e+37
5.4269841 4.5306977 1.5761465 -1.655216e+37
4.7776384 4.0097574 2.3022002 -1.3804743e+37
-7.4605696 -5.5663865 34.78599 -1.3883929e+37
6.1895873 4.3889639 1.0322568 -1.5633394e+37
6.4204895 4.5204256 1.0279007 -1.4303546e+37
6.4440271 4.5882562 1.0226761 -1.3034531e+37
6.5664832 4.6352103 1.0290099 -1.3802787e+37
6.6682521 4.7103406 1.0319239 -1.3055744e+37
5.6523337 4.052082 1.0369801 -1.4798097e+37
5.7515554 4.1159755 1.0365511 -1.5633075e+37
6.0847576 4.3447415 1.0334449 -1.4808517e+37
6.2452011 4.5392927 1.0312183 -1.5633092e+37
6.3951231 4.685415 1.0172392 -1.0633824e+37
5.5079611 4.0844137 1.0394955 -1.3966039e+37
5.6024809 4.09567 1.0381561 -1.4054641e+37
5.7864656 4.2546189 1.1021518 -1.5714849e+37
5.9688717 4.37869 1.0346004 -1.3222881e+37
6.1684147 4.6048865 1.0294 -1.5381893e+37
6.4442057 4.7954506 1.0177764 -1.3808685e+37
6.5845552 4.8601775 1.0317263 -1.6380146e+37
5.8484229 4.4505082 1.0356718 -1.5889507e+37
5.9803282 4.4655073 1.034855 -1.7548767e+37
5.9989128 4.5211364 1.034449 -1.6044575e+37
6.0641172 4.6005857 1.0331609 -1.5639914e+37
6.2364617 4.716125 1.0198532 -1.5800538e+37
6.3959714 4.8096341 1.0139286 -1.3717758e+37
6.4885949 4.9430583 1.0240278 -1.5469538e+37
5.5642705 4.247927 1.0385472 -1.2222705e+37
6.2960885 4.9102108 1.0060089 -1.3968308e+37
6.4529854 5.0352444 1.020792 -1.3887501e+37
6.1625484 4.8404154 1.0139346 -1.4472297e+37
6.2573955 4.9000237 1.007176 -1.5806732e+37
6.3349296 5.0422196 1.009787 -1.3803456e+37
6.4465782 5.0426874 1.0203678 -1.3805411e+37
5.9786148 4.8346284 1.0195355 -1.5149618e+37
6.0711856 4.9038254 1.011862 -1.3969608e+37
6.1770632 5.0116547 1.0023028 -1.8551161e+37
6.3882576 5.1131464 1.0152016 -1.471729e+37
5.913551 4.8615289 1.0197439 -1.4469365e+37
6.0618066 5.0060897 1.0057665 -1.0635259e+37
6.1397899 5.0469974 1.0006821 -1.45564e+37
6.2793488 5.1250461 1.004517 -1.4391853e+37
6.2261045 5.2515941 0.99977191 -1.3974509e+37
6.1093583 5.1903917 0.99243385 -1.4384666e+37
6.2258598 5.2829924 0.99999111 -1.297105e+37
5.8113471 5.0611222 1.0096036 -1.5052877e+37
5.8992283 5.120155 1.0031827 -1.4057234e+37
6.0025068 5.2184389 0.99363318 -1.1885193e+37
6.1679536 5.3371674 0.99460358 -1.2552417e+37
6.0725748 5.3570843 0.98540209 -1.2967808e+37
5.595386 5.1156013 1.012218 -1.6884456e+37
5.9454972 5.3646934 0.98528075 -1.3055764e+37
5.7399042 5.3766954 0.99131847 -1.1001457e+37
5.8547435 5.4152104 0.98453081 -1.3887523e+37
5.9809383 5.5395901 0.97689765 -1.6308116e+37
5.4222647 5.209603 1.010927 -1.5142083e+37
5.4986184 5.2968715 1.0053633 -1.3642203e+37
5.5927458 5.3574643 0.99855493 -1.4727726e+37
5.703638 5.4384131 0.99104199 -1.0654738e+37
5.847129 5.5010026 0.98183276 -1.2801314e+37
5.9084971 5.5877184 0.97669741 -1.388784e+37
5.1451211 5.1343025 1.0264659 -1.4801981e+37
5.228845 5.2069458 1.0209492 -1.6551822e+37
5.9062056 5.6083233 0.97548185 -1.5722053e+37
4.701711 4.9001388 1.0265429 -1.613611e+37
4.9927517 5.0965189 1.0355059 -1.4722189e+37
5.1384907 5.1536101 1.0267834 -1.3304345e+37
5.1551992 5.1734449 1.0252367 -1.4137387e+37
5.2066889 5.2616273 1.0202589 -1.5633087e+37
5.2932241 5.3433942 1.0141351 -1.4223405e+37
5.4026994 5.3513365 1.0076964 -1.5805766e+37
5.3973356 5.3786016 1.0073194 -1.521576e+37
5.552179 5.4555739 0.99821082 -1.6798756e+37
5.7207295 5.61492 0.98550636 -1.6143593e+37
5.8769636 5.6820744 0.97616728 -1.488767e+37
4.7526609 5.0117415 1.0319533 -1.8641108e+37
4.7463804 5.0467638 1.0312024 -1.472088e+37
5.4693019 5.5003879 1.0015639 -1.5548706e+37
5.5810468 5.5954112 0.99359036 -2.3926104e+37
5.6729469 5.6492336 0.98727404 -1.5801536e+37
4.5534823 4.975675 1.013087 -1.5133316e+37
4.8252567 5.161097 1.0329669 -1.8968215e+37
2.1839925 -4.0085474 17.882743 -1.4551139e+37
5.2154687 4.1981397 2.1784202 -1.5055811e+37
4.9170806 4.3732334 3.0411535 -1.5306305e+37
4.9527417 5.2866399 0.99080548 -1.4470034e+37
5.0978367 3.7226223 1.0371822 -1.5058082e+37
5.0382034 3.8541827 1.0231315 -1.2634848e+37
5.0989153 3.9273762 1.0188252 -1.7056797e+37
4.8957843 3.9194301 1.014285 -1.563536e+37
6.8582721 3.4777741 5.0635825 -1.397286e+37
4.9090462 4.055833 1.0085751 -1.4641378e+37
4.9112279 4.1486094 1.0127585 -1.3388725e+37
4.8734233 4.2238031 1.013747 -1.5059038e+37
4.8329776 4.2171009 1.0105159 -1.3218007e+37
4.6642943 4.3662272 1.0054085 -1.4553737e+37
4.65745 4.3849446 1.0061087 -1.6297394e+37
4.6379345 4.6436168 1.0144958 -1.4303847e+37
5.3139839 5.1515116 1.1065952 -1.2554065e+37
4.5497671 4.6533849 1.0102304 -1.7961842e+37
4.5863706 4.6958074 1.0144056 -1.7722366e+37
4.6186191 4.7346335 1.017993 -1.430611e+37
5.1896142 6.565819 3.6367136 -1.6306827e+37
4.5821635 4.7417102 1.0164372 -1.6135459e+37
4.4275769 4.7863704 1.00132 -1.5478328e+37
4.4712697 4.8390668 1.0055914 -1.3886849e+37
5.7722072 4.4861898 1.0369599 -1.4223698e+37
4.5209996 5.2264891 1.8156423 -1.3968946e+37
6.616931 4.7786741 1.0360186 -1.4470991e+37
5.5165843 3.933234 2.4078742 -1.3223857e+37
6.1769155 4.9705164 2.4442112 -1.4472622e+37
4.7294722 4.8992994 1.3734574 -1.5630801e+37
6.0169234 3.6411705 2.6234669 -1.5890444e+37
5.4546296 4.7238234 2.0709531 -1.2138681e+37
5.7269761 5.8761289 3.8550306 -1.2639721e+37
4.9259767 5.5104701 2.299587 -1.4054944e+37
4.8119296 3.6780228 2.536925 -1.497304e+37
5.0306244 4.4593564 1.269346 -1.36373e+37
5.8078989 5.0696181 1.4301882 -1.5718101e+37
4.6151452 4.4091097 1.7352164 -1.4552104e+37
5.40745 5.215356 3.4191575 -1.5300784e+37
4.8936248 4.7275 1.1484341 -1.6220481e+37
4.1426896 5.3680541 2.4980809 -1.2470315e+37
5.4564037 3.5785791 2.3905614 -1.3473113e+37
5.465823 3.3203065 3.1612749 -1.5972238e+37
5.4132924 4.0402751 2.9816779 -1.4555698e+37
4.6894455 4.5324744 2.5816918 -1.2971055e+37
5.0418355 4.7910295 1.0439402 -1.5219005e+37
5.1820573 5.1770013 1.2606363 -1.430257e+37
4.9806019 4.3266693 3.5326076 -1.471957e+37
3.9076538 5.4673604 7.240854 -1.3887164e+37
4.5019813 5.0997683 2.1132683 -1.4136729e+37
5.6025719 4.1893884 1.5523539 -1.5301425e+37
5.9245132 4.4985089 1.5979658 -1.4220469e+37
6.588226 4.789636 2.9632834 -1.4968477e+37
5.3205324 4.2749134 1.8678301 -1.4637471e+37
4.0748651 6.3657659 6.7208628 -1.5636025e+37
5.7335093 4.8115413 2.2244774 -1.1052802e+37
5.1447434 4.7407664 2.6227735 -1.4134441e+37
5.7346109 5.4744774 2.151087 -1.4882473e+37
5.8600387 4.1553908 1.0357725 -1.6719922e+37
6.2351133 4.2714795 1.0321794 -1.5217377e+37
6.4797327 4.3584034 1.028502 -1.9384561e+37
6.4854847 4.3707504 1.0289356 -1.7050283e+37
6.5616928 4.4347737 1.029355 -1.4896193e+37
6.6544348 4.4809863 1.0202703 -1.6964278e+37
6.7835818 4.5221285 1.0092329 -1.4898407e+37
7.0901532 4.657344 0.97903162 -1.3558801e+37
7.2691168 4.7439714 0.96084605 -1.4887361e+37
5.6017609 4.0961891 1.0379622 -1.6383702e+37
5.6179974 4.1557771 1.0371252 -1.3967656e+37
5.7459091 4.1714392 1.035157 -1.3973201e+37
5.8356287 4.1915649 1.0358403 -1.3967653e+37
6.1728666 4.3241882 1.0325541 -1.3556489e+37
6.3706985 4.4161113 1.0304214 -1.4139025e+37
7.033573 4.6867604 0.97705549 -1.5950736e+37
7.2356606 4.8239809 0.94898787 -1.4220776e+37
5.5232073 4.1814686 1.0386029 -1.5642519e+37
5.9303482 4.309491 1.0348841 -1.4223385e+37
6.4277213 4.552878 1.0254064 -1.3218326e+37
6.6173612 4.6081392 1.0321101 -1.4975999e+37
6.7258948 4.6906162 1.0224595 -1.7219385e+37
6.8396777 4.718077 1.0039602 -1.3218351e+37
7.2225956 4.8546828 0.95336212 -1.7138568e+37
5.7382929 4.3251163 1.0371686 -1.5471501e+37
6.8071318 4.7707181 1.0155221 -1.4883763e+37
7.0934877 4.945544 0.98252064 -1.7223263e+37
7.2061621 4.9432228 0.96291475 -1.3218325e+37
6.8306018 4.8473651 1.018005 -1.5302079e+37
7.0558194 4.9932148 0.9926511 -1.7381589e+37
7.1772874 4.9864219 0.97181412 -1.8049458e+37
6.9988386 4.9910672 1.001827 -1.6473641e+37
7.1699249 5.107791 0.98304592 -1.1970872e+37
6.6921823 5.0036088 1.0458273 -1.4551469e+37
7.1049094 5.1682861 0.99862847 -1.4296705e+37
6.6809025 5.031183 1.0450994 -1.2967808e+37
7.1119925 5.2076846 1.0005454 -1.8723231e+37
6.7227695 5.1313795 1.0495745 -1.4057577e+37
6.7968431 5.2340036 1.0546318 -1.6546274e+37
6.9962655 5.2715765 1.025815 -1.5225505e+37
6.9993039 5.3141035 1.027994 -1.6220803e+37
7.0745442 5.2928444 1.0142177 -1.3890477e+37
6.5800787 5.1724246 1.0345976 -1.3890412e+37
6.6428684 5.2490137 1.0420499 -1.4807836e+37
6.8355134 5.309373 1.0552273 -1.0633824e+37
6.938741 5.3214449 1.0392274 -1.4138042e+37
7.054186 5.3632379 1.0232455 -1.6391182e+37
6.7507691 5.3156757 1.0548545 -1.6060814e+37
6.9481709 5.441095 1.045912 -1.5550002e+37
7.0377745 5.4434915 1.033035 -1.4305177e+37
6.5840827 5.3902807 1.037259 -1.4470666e+37
6.7154637 5.3974214 1.0510287 -1.439604e+37
6.9457652 5.5260031 1.0546849 -1.422045e+37
7.0488733 5.5992424 1.0435049 -1.4807187e+37
6.4146932 5.4040937 1.019786 -1.6050447e+37
6.8267797 5.5954895 1.0625215 -1.4055279e+37
6.9339819 5.5978128 1.0630001 -1.4055583e+37
7.0379566 5.6096684 1.046522 -1.6723835e+37
6.4828349 5.5428307 1.0277837 -1.4299648e+37
6.5473093 5.5598599 1.0348138 -1.5298835e+37
6.717214 5.5680893 1.0524734 -1.0633824e+37
6.8994981 5.6438652 1.0709465 -1.6965546e+37
6.8901923 5.7120293 1.0704567 -1.4049751e+37
7.0164182 5.7469506 1.0611564 -1.3387734e+37
6.6364019 5.6291044 1.0441839 -1.5389055e+37
6.8575362 5.7235735 1.067868 -1.7058104e+37
6.9751488 5.8070671 1.0730636 -1.4721527e+37
6.7918543 5.8452338 1.0614015 -1.6965557e+37
6.9589995 5.9339811 1.0798824 -1.4052694e+37
6.2429765 5.6901328 1.003545 -1.5978082e+37
6.3822426 5.7225727 1.0187444 -1.4553436e+37
6.5525382 5.7641231 1.0367171 -1.4390173e+37
6.7686589 5.9279287 1.0601326 -1.5468887e+37
5.6797681 5.5484384 0.98802419 -1.5385479e+37
5.5158143 5.5473689 0.99653425 -1.3222577e+37
5.6774742 5.5801917 0.98753717 -1.4969123e+37
5.8496982 5.6196989 0.97699456 -1.5219662e+37
5.9291241 5.6586738 0.97477558 -1.4641399e+37
4.0426739 3.3408929 2.7178249 -1.638956e+37
4.3297836 3.6927092 2.0985985 -1.5890145e+37
11.569615 -2.9290704 13.068455 -1.2723467e+37
6.136513 6.2352208 5.9148833 -1.3633365e+37
5.4440321 5.5653226 0.98982026 -1.7796374e+37
6.089452 4.2599102 1.0332871 -1.687989e+37
5.6484097 4.3500729 1.0370756 -1.1719696e+37
5.4931211 4.3308471 1.0399006 -1.7559795e+37
5.650563 4.389227 1.0376108 -1.5470838e+37
6.5620184 4.709233 1.196029 -1.3056431e+37
5.5189218 4.4744251 1.0394817 -1.6554083e+37
6.3231875 4.7871072 1.0130279 -1.3812894e+37
5.5419019 4.4975226 1.0389053 -1.3640889e+37
5.5475857 4.5732223 1.0393385 -1.9805448e+37
5.4895213 4.6243455 1.0393923 -1.6056313e+37
5.3264157 4.7082037 1.0418276 -1.471859e+37
5.3720251 4.7748799 1.0401222 -1.246965e+37
5.3996328 4.9068219 1.0321856 -1.7887889e+37
5.4290105 4.8938814 1.0318973 -1.3809017e+37
5.3219376 5.0104007 1.02673 -1.2220743e+37
5.3549211 5.0463018 1.023445 -1.3302064e+37
5.6532849 5.1934609 1.0051613 -1.4719926e+37
5.2999561 5.3378006 1.0137719 -1.3218034e+37
5.4373635 5.3957234 1.0049592 -1.5467272e+37
5.1861027 5.4716509 1.0162084 -1.4216866e+37
5.293771 5.4551671 1.0108299 -1.6632304e+37
6.0973904 4.0771496 2.3548505 -1.4311311e+37
5.4894967 4.1303704 1.5910377 -1.5636664e+37
5.465722 4.376018 2.0395782 -1.6049755e+37
6.333831 5.0776826 2.4274568 -1.2551757e+37
6.5158246 5.1472137 1.3296648 -1.463684e+37
6.1101115 5.093291 1.1410429 -1.3136893e+37
6.6868806 5.9707318 2.3252801 -1.4469354e+37
4.0683318 7.0588671 4.3726291 -1.3389061e+37
5.1819374 4.7077548 1.2856392 -1.5300787e+37
5.6494284 4.3342572 2.1646334 -1.5973234e+37
5.512976 4.5458426 1.3901463 -1.7138237e+37
6.3499674 5.149638 1.2797029 -1.3548362e+37
6.4917067 5.3821983 1.4806234 -1.4548853e+37
7.2744104 6.7392021 3.7605096 -1.5639608e+37
5.8778102 5.9739862 4.2562596 -1.6549843e+37
6.1335113 3.2737471 3.9662532 -1.3806397e+37
4.4301097 4.0879075 2.2111975 -1.4716977e+37
5.5685959 5.8409623 2.3924436 -1.6134472e+37
5.9902323 4.6564596 1.993282 -1.4226014e+37
5.4433318 4.7434902 1.4176384 -1.6558339e+37
5.4668833 3.8759232 2.8135273 -1.39683e+37
7.047865 4.8926606 2.1518463 -1.4471298e+37
5.7564101 5.6462095 2.0568261 -1.2887315e+37
5.4978491 5.7137435 1.1856273 -1.4303868e+37
6.633392 3.8722473 2.8236217 -1.4637148e+37
6.9003613 4.6505231 1.9177099 -1.4388561e+37
9.8420177 5.4731549 10.690593 -1.6050733e+37
4.9740222 4.7000096 3.6221038 -1.3968002e+37
6.5912119 5.5797336 1.3466454 -1.6638831e+37
6.754228 5.0669619 1.5272881 -1.7463399e+37
4.670036 4.8844584 3.379343 -1.5884939e+37
6.0831288 5.3904524 2.3689805 -1.5968009e+37
6.2252841 5.2243021 1.1568577 -1.3966995e+37
5.5344395 3.7495758 2.1469451 -1.5636328e+37
5.4930156 5.1351138 3.3278246 -1.397418e+37
6.009666 4.0730435 2.0137305 -1.2135724e+37
6.1167894 4.8542749 1.5905958 -1.6135781e+37
5.8921713 5.0993651 4.1869763 -1.7723022e+37
6.6507432 5.8243506 2.8772393 -1.5055791e+37
5.026474 5.235202 1.9786409 -1.5643506e+37
5.1355549 5.8612642 3.4037547 -1.5971591e+37
6.2085484 4.3322314 1.2813716 -1.305315e+37
6.612942 4.6606926 2.921957 -1.2717596e+37
6.3887126 5.1754557 1.3837215 -1.4213942e+37
6.5783752 4.2726351 1.0253628 -1.671015e+37
7.0114423 4.3944535 1.0238283 -1.4053639e+37
7.3049003 4.4432909 1.0076719 -1.3385462e+37
7.4802878 4.4289365 1.0057836 -1.4058543e+37
7.5488982 4.4903539 0.99282596 -1.546466e+37
7.588715 4.4692797 0.99492844 -1.3636651e+37
7.7212725 4.530008 0.98219897 -1.1156704e+37
7.8732124 4.5314007 0.97688043 -1.2133775e+37
7.9217965 4.554057 0.97292498 -1.6298027e+37
7.9788882 4.53398 0.97358526 -1.2885381e+37
6.3245432 4.2940082 1.0296537 -1.405561e+37
7.1089506 4.4305996 1.0163505 -1.2638092e+37
7.3093842 4.4541374 1.006988 -1.0633824e+37
7.4150312 4.5145112 0.99338502 -1.4309068e+37
7.414672 4.5426249 0.98916697 -1.5471804e+37
7.5195632 4.5202631 0.9892022 -1.4048445e+37
7.7482535 4.5815221 0.97236424 -1.0633824e+37
7.9387099 4.5871527 0.96484517 -1.3468206e+37
6.4544817 4.4316168 1.0304432 -1.5056444e+37
6.5594043 4.4349866 1.0291008 -1.3136554e+37
6.7552479 4.4953444 1.0152035 -1.5390687e+37
7.1461574 4.5351584 0.99787223 -1.4885069e+37
7.329977 4.5835127 0.98424555 -1.5967687e+37
7.6100198 4.6389377 0.96667637 -1.3810291e+37
7.7084984 4.6941585 0.95506113 -1.0633824e+37
7.9368121 4.7193252 0.94407773 -1.3635659e+37
6.4504493 4.5117481 1.0270541 -1.4055617e+37
7.5435098 4.704756 0.95765897 -1.4639749e+37
7.7138497 4.7550178 0.94487289 -1.7221649e+37
7.8736982 4.7867772 0.93520512 -1.813614e+37
6.4252823 4.5548171 1.0250082 -1.5143102e+37
7.396117 4.8003312 0.94637101 -1.322063e+37
7.5556581 4.8118989 0.9397842 -1.4888665e+37
7.6641834 4.821216 0.93497588 -2.005785e+37
7.8839681 4.8432527 0.92589966 -1.7136641e+37
7.5423561 4.8481248 0.93386523 -1.4635495e+37
7.7218973 4.9347697 0.91494224 -1.2718577e+37
7.8036743 4.9114049 0.91665348 -1.6555736e+37
7.8549168 4.9539379 0.90844073 -1.4892565e+37
7.5812697 4.9755965 0.9121389 -1.5987734e+37
7.6782033 5.0006456 0.90491661 -1.4971051e+37
7.846797 4.9679898 0.90588557 -1.5553922e+37
7.6718599 5.0350998 0.9010571 -1.2968455e+37
7.8349854 5.0679941 0.91941328 -1.4729347e+37
7.5683052 5.0339022 1.7104504 -1.3135583e+37
7.5562532 5.0705544 0.91391176 -1.0633824e+37
7.6500893 5.1149459 0.90342442 -1.5142763e+37
7.8151942 5.1486278 0.93669606 -1.7129443e+37
7.8346951 5.1842735 0.9403043 -1.5052201e+37
7.6753794 5.2720219 0.91278012 -1.3134279e+37
7.8225795 5.3049794 0.93594747 -1.5642543e+37
7.5137125 5.324529 0.94232305 -1.397154e+37
7.7056718 5.3614183 0.91609495 -1.3637629e+37
7.8109922 5.3356327 0.932715 -1.3641846e+37
7.3662154 5.3996283 0.97346802 -1.4052989e+37
7.6026389 5.4146607 0.93674737 -1.7137581e+37
7.7735456 5.4493496 0.92356095 -1.3466908e+37
7.6694037 5.4556029 0.92940046 -1.3807382e+37
7.7074738 5.5083261 0.92837575 -1.5641254e+37
7.7663344 5.5272692 0.92287808 -1.5888482e+37
7.5261183 5.564723 0.96196691 -1.0635454e+37
7.7524708 5.549033 0.92407744 -1.8387982e+37
6.8056608 5.5982967 1.0611606 -1.5391345e+37
7.3633315 5.6541815 0.99547808 -1.5384194e+37
7.4820503 5.6052073 0.9721367 -1.4716966e+37
7.6662059 5.6590665 0.94861114 -1.2303184e+37
7.6952017 5.6424779 0.94217181 -1.4725463e+37
7.7853598 5.6748627 0.93125327 -1.5220639e+37
6.6841308 5.6234213 1.0489484 -1.2887343e+37
6.7758448 5.6154832 1.0577592 -1.5891109e+37
6.7909881 5.6059246 1.0607551 -1.3387758e+37
6.8982095 5.644346 1.0707532 -1.5548725e+37
7.0782343 5.6437226 1.0420491 -1.5391999e+37
7.167697 5.7250836 1.0335295 -1.4055605e+37
7.2617217 5.6870451 1.0151355 -1.5801502e+37
7.5282782 5.7217076 0.97497368 -1.0633824e+37
7.647576 5.7213459 0.95776795 -1.4058878e+37
7.7618392 5.7107306 0.93892665 -1.4302254e+37
6.5869523 5.7218403 1.0397653 -1.4886039e+37
6.608352 5.6667789 1.0410793 -1.5135297e+37
6.7768207 5.7195781 1.0581063 -1.4305462e+37
7.3355161 5.7723066 1.0099396 -1.3388742e+37
6.7383644 6.2983314 2.7286147 -1.5306972e+37
6.3829305 4.2573149 1.0287055 -1.3467566e+37
6.3287915 4.5855769 1.02626 -1.5800857e+37
6.8199719 4.6679197 1.0059149 -1.5802473e+37
6.9277357 4.6662603 0.98797862 -1.5979666e+37
6.2596781 4.6377103 1.0252323 -1.5220967e+37
6.5492962 4.7231117 1.0277991 -1.4222739e+37
6.6191266 4.6971643 1.089904 -1.3052503e+37
7.6465568 4.9537242 1.1690688 -1.4638754e+37
6.2748495 5.0366229 1.0733185 -1.2967161e+37
6.2545159 5.2532326 1.0022497 -1.4227948e+37
6.1893982 5.2698333 0.99527127 -1.4635512e+37
6.1675057 5.3383837 0.99376073 -1.2135411e+37
6.1857437 5.3575149 0.99540988 -1.4471651e+37
6.2303665 5.4835461 1.0009702 -1.3638929e+37
6.3312395 5.4594147 1.0113739 -1.4804924e+37
6.1947833 5.5015045 0.9973653 -1.4888326e+37
6.3881837 5.5354784 1.0179308 -1.5305667e+37
6.481361 5.5448849 1.0273544 -1.4226658e+37
6.1680145 5.6251585 0.99536699 -1.5309926e+37
6.6990747 4.543731 2.0217176 -1.4382373e+37
6.2762983 5.2375453 1.1187114 -1.5394931e+37
6.5439366 5.7397556 1.5780977 -2.0298363e+37
6.8379101 6.6954133 4.4042681 -1.4813055e+37
6.274539 4.9011395 1.2388269 -1.7309926e+37
6.9026829 5.0600163 1.9827234 -1.505286e+37
7.4522534 5.2196566 1.2867659 -1.3896251e+37
6.6462264 4.1639327 2.5723273 -1.5133331e+37
6.7392081 4.3794637 1.9899857 -1.4304848e+37
7.993712 4.419472 3.1909997 -1.5464009e+37
7.4520932 4.801584 1.3414053 -1.6306155e+37
6.9012963 5.2070593 2.0109762 -1.347469e+37
7.4870685 5.6054212 2.4171328 -1.4970092e+37
6.2915288 5.7360074 2.0655795 -1.3721366e+37
6.5457314 3.4022981 2.3348451 -1.4386951e+37
6.2101983 5.4266846 1.2467023 -1.5471507e+37
6.9670843 4.4142594 1.2277452 -1.3555847e+37
5.9894588 5.0015827 3.6836533 -1.4634527e+37
6.6734312 5.2524665 1.5511792 -1.355454e+37
8.6300124 4.2864139 3.0829733 -1.5308955e+37
5.7919713 4.4461111 2.6684259 -1.5054799e+37
6.8277638 4.8306307 1.6272597 -1.4722175e+37
6.4089768 5.3698795 1.4067622 -1.4807553e+37
7.9129806 6.0702767 2.4368224 -1.2725393e+37
7.075838 5.8660746 1.8633098 -1.4886707e+37
7.2488812 4.7479101 1.032832 -1.4967527e+37
7.3986235 4.7213829 1.2892654 -1.5217053e+37
6.4887749 4.7815217 1.3349661 -1.1971858e+37
6.2478642 4.542305 3.357531 -1.4969451e+37
6.1457693 4.5193497 7.20772 -1.5386794e+37
6.7920463 5.7991034 1.7365274 -1.4723802e+37
7.231754 4.708279 2.3365697 -1.3305306e+37
8.1371243 4.8971461 1.987513 -1.3891752e+37
5.700593 5.7190979 6.0055716 -1.3388422e+37
6.4615122 5.7344884 1.4056878 -1.6214954e+37
5.6153799 3.5653816 4.7919185 -1.3965685e+37
6.7884771 4.7034435 2.6007631 -1.622016e+37
6.4618076 5.4744138 1.6999989 -1.3808655e+37
7.4107234 4.5652159 2.2452429 -1.5220314e+37
6.853926 4.2203197 1.0292783 -1.355325e+37
6.9879133 4.1683476 1.0308701 -1.3467567e+37
7.1444368 4.1897654 1.036015 -1.4061471e+37
7.3332584 4.1862418 1.0409343 -1.5632755e+37
7.4241343 4.2107149 1.0435873 -1.4055276e+37
7.5006449 4.1970985 1.0432291 -1.288733e+37
7.5658348 4.2275609 1.0362115 -1.4970144e+37
7.6397173 4.1871507 1.0409081 -1.4719264e+37
7.7152711 4.1884247 1.0383379 -1.1887798e+37
7.8325224 4.2403362 1.0268451 -1.4390837e+37
7.9166515 4.235278 1.0243863 -1.5638616e+37
7.9485261 4.2375535 1.0227862 -1.5470527e+37
8.0785725 4.2293746 1.0224503 -1.4800049e+37
8.2382312 4.2695954 1.0103402 -1.1891398e+37
8.35692 4.2614039 1.0096728 -1.3310849e+37
8.4648087 4.2929188 1.0022143 -1.0633824e+37
8.4914188 4.2688566 1.0059141 -1.0633824e+37
8.5814324 4.2677785 1.0029438 -1.5305025e+37
8.7543331 4.2997788 0.9934328 -1.4051374e+37
6.7774147 4.2897397 1.0287116 -1.4384668e+37
6.8733277 4.278529 1.0312047 -1.5633736e+37
7.0431382 4.2815881 1.0359004 -1.5390687e+37
7.1499132 4.2803151 1.0386976 -1.4139033e+37
7.1992268 4.2648199 1.0398734 -1.4054968e+37
7.2982821 4.2482063 1.0403566 -1.5971913e+37
7.3808732 4.3153354 1.0273489 -1.2386247e+37
8.2461678 4.305637 1.0049899 -1.372167e+37
8.3287863 4.299614 1.0040466 -1.4386937e+37
8.7258572 4.3939021 0.97781006 -1.3725262e+37
7.1184493 4.3223475 1.0326648 -1.5475727e+37
7.3063518 4.3759727 1.0191019 -1.5054148e+37
8.1560997 4.4558249 0.98099112 -1.5968629e+37
8.5776018 4.3983467 0.98230556 -1.5309243e+37
8.6219708 4.4013203 0.98000981 -1.2553734e+37
8.7339314 4.4554965 0.9684278 -1.2389182e+37
7.1098267 4.4321331 1.0154315 -1.3803118e+37
7.6638489 4.4968498 0.98857174 -1.6473277e+37
8.5630882 4.5432519 0.95870916 -1.454918e+37
8.6615486 4.5488837 0.9542647 -1.4806577e+37
8.5495237 4.615082 0.9454141 -1.2055587e+37
8.6702071 4.5814931 0.9497769 -1.6550181e+37
8.3923954 4.6582588 0.94295082 -1.0633824e+37
8.6188473 4.6783437 0.93446883 -1.4472289e+37
8.6819232 4.6531315 0.9366417 -1.4720238e+37
8.5215749 4.7697937 0.92158661 -1.31359e+37
8.6285602 4.740769 0.92444888 -1.6716991e+37
8.3371825 4.8429339 0.91459469 -1.4053659e+37
8.471674 4.8604659 0.92841525 -1.430222e+37
8.6374663 4.8016413 0.92939197 -1.4809806e+37
8.4809169 4.9303768 0.94412466 -1.663489e+37
8.5704535 4.9331829 0.95246719 -1.338253e+37
8.6624584 4.8944 0.95211991 -1.5383853e+37
8.4423436 4.9856793 0.95359452 -1.0633824e+37
8.6777172 4.991334 0.97448925 -1.3893044e+37
8.2999277 5.0559684 0.9569171 -1.3973837e+37
8.3646866 5.0311849 0.95700109 -1.4388231e+37
8.5065282 5.0309409 0.96872774 -1.3804101e+37
8.6569484 5.0815623 0.99286521 -1.4221752e+37
8.6735828 5.0473219 0.98672563 -1.4551469e+37
8.4028501 5.1493287 0.9862062 -1.0635784e+37
8.5480378 5.1439866 0.99688959 -1.5054129e+37
8.7013524 5.1289119 1.0060433 -1.5641215e+37
8.635566 5.2460374 1.0271918 -1.3391638e+37
8.7258769 5.2654087 1.0386959 -1.4885726e+37
8.1074606 5.2863257 0.99259284 -1.4799376e+37
8.3246795 5.2873619 1.0100187 -1.5392014e+37
8.4436246 5.2814104 1.0178167 -1.0633905e+37
8.5730327 5.3355335 1.0403485 -1.4882805e+37
8.8009286 5.3485613 1.0635769 -1.5056454e+37
8.5391898 5.3832435 1.0485444 -1.4725117e+37
8.7867385 5.4021843 1.0737668 -1.3638603e+37
8.0145777 5.4525772 0.97591668 -1.3722322e+37
8.5032825 5.4837732 1.0688075 -1.0633824e+37
8.6970596 5.507849 1.0898188 -1.322061e+37
8.8386528 5.5302592 1.0964681 -1.5550657e+37
8.4114104 5.5593185 1.0595353 -1.3969925e+37
8.607416 5.5765932 1.0964791 -1.4055932e+37
8.8012578 5.6048638 1.1092116 -1.7302754e+37
8.7902215 5.6613468 1.1109268 -1.3716139e+37
5.0220473 4.641273 3.1322738 -1.3135903e+37
6.5268738 5.6905232 2.7739774 -1.4299948e+37
6.9347601 4.5333607 1.0036681 -1.3135267e+37
7.1701348 4.510036 1.0665541 -1.7307971e+37
7.8069257 4.5780989 0.97070325 -1.422145e+37
6.9690921 4.6088512 0.99019911 -1.4802327e+37
8.5139586 4.5175838 1.663305 -1.5216726e+37
6.9232595 4.7968276 0.99796577 -1.3718747e+37
6.9824764 4.9974936 1.0030018 -1.4221453e+37
8.0252114 5.3569268 1.6369575 -1.438563e+37
7.0310676 5.2284763 1.0793749 -1.5804445e+37
8.3870785 4.4296143 1.3735641 -1.5305321e+37
7.2345671 4.8448156 0.94967689 -1.4635817e+37
7.819745 5.8069843 1.5676483 -1.5388414e+37
6.1951678 5.0363082 2.03476 -1.3886844e+37
8.9737969 5.4688978 3.9994583 -1.5555512e+37
6.3679978 7.4685887 7.9741677 -1.4469044e+37
8.0747964 5.307887 1.1211426 -1.5557155e+37
8.1794355 5.9691748 2.1879623 -1.3800844e+37
6.5902169 4.2118699 2.1328056 -1.6720613e+37
6.6703914 4.7406327 1.7337461 -1.6635236e+37
11.765844 6.901763 7.5703472 -1.4718287e+37
7.7832417 4.8944603 1.3882343 -1.3884891e+37
7.7154062 5.394871 0.9965772 -1.5135602e+37
8.2671221 5.2102655 2.3090247 -1.5057412e+37
7.9845424 4.3094896 1.5605571 -1.3718748e+37
8.0911563 4.4971239 1.592141 -1.3889778e+37
6.9715679 5.3707346 2.1869641 -1.4719595e+37
7.6021807 4.3675656 2.2541425 -1.5140811e+37
5.7313649 3.5383256 4.0675974 -1.6472979e+37
6.854393 5.0283267 1.7209487 -1.5717794e+37
7.8116445 5.1502453 2.1476351 -1.3634352e+37
7.3289966 5.374302 1.0595508 -1.7885607e+37
6.9044677 5.4238071 2.0520994 -1.4556977e+37
6.8106618 4.9756274 1.5947424 -1.8219857e+37
7.9673579 4.6464534 5.9473256 -1.4720871e+37
6.5957005 5.7762616 2.4372652 -1.5223225e+37
8.7943302 4.8370468 1.8703376 -1.3639252e+37
8.9877109 4.8869811 1.7655747 -1.3888153e+37
7.537866 5.1814175 1.7824106 -1.6390225e+37
8.3898434 5.2068992 1.6495711 -1.4223727e+37
7.023983 5.4961415 2.9397063 -1.5720727e+37
6.6513371 5.7659602 2.2814123 -1.4307467e+37
8.4655245 3.8144887 2.5217653 -1.3725576e+37
8.9699965 4.2564805 2.2825065 -1.3388723e+37
8.1066439 5.0280624 1.2524955 -1.5221284e+37
7.8560007 5.4599884 4.5350017 -1.6216917e+37
7.559425 5.4862225 1.4601255 -1.7216121e+37
6.8818183 4.1936306 3.0320354 -1.2555334e+37
8.7639827 4.4744226 2.7776707 -1.2973375e+37
9.0575409 5.3199362 3.8413663 -1.497042e+37
8.052772 5.4946121 1.3722255 -1.3555184e+37
7.5301525 4.0053297 1.0404335 -1.28883e+37
7.7637309 3.9939993 1.0462264 -1.2970723e+37
7.8552822 3.9853374 1.0486855 -1.4551459e+37
8.2607947 4.0266346 1.0505321 -1.7298524e+37
8.5133423 3.9946502 1.0431244 -1.5724637e+37
8.8373193 3.9868429 1.0258721 -1.6386962e+37
8.8398144 4.0075921 1.0243697 -1.3720068e+37
8.9557138 3.9866678 1.0213835 -1.5303367e+37
9.0935403 4.0275323 1.0095181 -1.6715061e+37
9.3202245 4.0295767 0.99711528 -1.5558825e+37
9.3768628 4.056542 0.99034242 -1.4303532e+37
9.4719267 4.0425763 0.98744724 -1.4299952e+37
8.5692905 4.1050671 1.0261451 -1.6052712e+37
8.7296607 4.1064147 1.0184097 -1.3967653e+37
9.2117619 4.1053007 0.99377189 -2.3936489e+37
9.3184368 4.14043 0.98293643 -1.4974674e+37
9.4392426 4.1509366 0.97573252 -1.4469372e+37
8.2695654 4.1885027 1.0239168 -1.6469385e+37
8.4160184 4.1474125 1.026868 -1.8385026e+37
8.483019 4.1991478 1.0157594 -1.4550812e+37
8.5122148 4.1921364 1.0166619 -1.3886193e+37
9.0253696 4.1713627 0.99533582 -1.6543998e+37
9.1879457 4.1772339 0.98482216 -2.1267648e+37
9.447139 4.1579358 0.97446272 -1.4638437e+37
7.5403208 4.2066334 1.0409729 -1.3970573e+37
7.9333574 4.2618521 1.021289 -1.3386767e+37
7.9523478 4.2418927 1.0222271 -1.4304192e+37
9.3406475 4.2807587 0.96551566 -1.2470979e+37
9.3596301 4.3064787 0.96315878 -1.5471797e+37
9.478799 4.3030126 0.95712746 -1.3888807e+37
7.9329727 4.2973322 1.0145139 -1.4137382e+37
8.6669477 4.2965599 1.0592884 -1.5387767e+37
8.9616283 4.366405 0.97577012 -1.4473263e+37
9.0014101 4.3119777 0.97919203 -1.4476826e+37
9.1356101 4.3769798 0.96414805 -1.4887978e+37
9.3288916 4.3519344 0.95742113 -1.5554893e+37
9.4391296 4.3540177 0.95215993 -1.5307304e+37
8.9939821 4.4031637 0.96853492 -1.6719297e+37
9.1197026 4.4245112 0.95991307 -1.4551146e+37
9.4434247 4.4667926 0.94075627 -1.3551615e+37
8.961251 4.4927695 0.95644822 -1.3555831e+37
9.2783089 4.508753 0.94111079 -1.5967687e+37
9.4298249 4.5127194 0.93703278 -1.5971556e+37
9.1527857 4.6060669 0.93183882 -1.3319154e+37
9.2463772 4.582078 0.93328495 -1.4218171e+37
9.443375 4.584478 0.93621397 -1.5304689e+37
9.1122885 4.6823742 0.94090175 -1.5806058e+37
9.2637584 4.6489994 0.94547415 -1.4220786e+37
9.446664 4.667592 0.93948558 -1.6144884e+37
9.4287638 4.7180648 0.9477374 -1.3886851e+37
9.1637422 4.8128751 0.9744996 -1.3470499e+37
9.3129349 4.8001522 0.96536311 -1.4136725e+37
9.4332714 4.8401124 0.96587638 -1.571843e+37
8.9710242 4.9060802 0.97900012 -1.671438e+37
9.4610989 4.8649945 0.96878901 -1.4546892e+37
9.1726735 5.0049505 1.0014862 -1.4553743e+37
9.3229656 4.9871083 0.99224722 -1.4723166e+37
9.4076481 4.9475829 0.98267338 -1.3566266e+37
9.4597583 4.998685 0.98752279 -1.6049755e+37
8.6583196 5.0838225 0.99336074 -1.4300294e+37
9.522161 5.0701274 0.99545855 -1.4556027e+37
9.3852284 5.1290976 1.0105876 -1.3805102e+37
9.5022041 5.1713963 1.01185 -1.3217371e+37
8.5931817 5.2557619 1.0246859 -1.3801186e+37
8.7997728 5.2695462 1.0451376 -1.3390016e+37
8.8608539 5.1958102 1.0343624 -1.4638775e+37
9.4676329 5.1889589 1.0156399 -1.73865e+37
9.5293052 5.2008316 1.0131488 -1.6053364e+37
8.8005735 5.3487811 1.063049 -1.1100431e+37
8.8716312 5.3291938 1.0636974 -1.3724935e+37
8.9893826 5.3595622 1.0635306 -1.555782e+37
9.5023888 5.2750146 1.0268775 -1.5800873e+37
8.7257274 5.4067824 1.0705838 -1.5218346e+37
9.3591773 5.4002277 1.0517676 -1.1634336e+37
7.7540003 4.2948115 1.9559865 -1.697599e+37
7.701059 5.1547634 4.2673791 -1.4305829e+37
7.8396171 4.3100129 1.015217 -1.5637966e+37
7.8066997 4.5753253 0.97201903 -1.4640405e+37
9.0054182 4.6591855 0.99676764 -1.3717123e+37
7.1406909 5.0122754 1.703799 -1.4803299e+37
7.8814076 4.864241 0.92293586 -1.4134782e+37
8.8951182 5.0188258 1.2282288 -1.5306299e+37
7.7984908 5.2166607 1.006512 -1.4468707e+37
7.9384572 5.1775238 0.95373758 -1.5723001e+37
7.7572743 5.2128108 0.92317769 -1.447067e+37
7.8405098 5.2337192 0.94095696 -1.5549684e+37
8.1717818 5.2674987 0.9931623 -1.4135762e+37
8.1082219 5.3385173 0.99734867 -1.3720045e+37
7.5842789 4.9977702 1.8037253 -1.3386755e+37
8.4987343 4.3872895 1.0604066 -1.4387585e+37
7.7786083 4.4784815 0.9883386 -1.3554864e+37
8.5028579 5.1278143 1.5525278 -1.4968813e+37
8.0349585 5.0723043 0.99956149 -1.3556485e+37
7.7510815 4.279787 1.7695064 -1.4476527e+37
7.3612147 4.1818298 2.2447774 -1.4218831e+37
8.3988372 5.006466 2.6899737 -1.397777e+37
8.5269331 5.1136188 1.5289291 -1.4224368e+37
8.4348931 4.4554095 1.655917 -1.3969276e+37
11.321616 4.0708005 4.8168531 -1.4386915e+37
8.03177 4.3783675 3.0567214 -1.2969423e+37
9.3471704 4.5731752 2.051309 -1.4548861e+37
6.930999 4.4915853 2.6401015 -1.5216726e+37
9.2308036 5.5138407 3.2299512 -1.3642539e+37
7.5739534 3.8833011 3.1409224 -1.5223562e+37
7.7636103 5.2821689 1.6761345 -1.3803117e+37
8.3407447 3.9633927 1.6289588 -1.4551454e+37
9.0472904 4.7656745 2.9273195 -1.4800699e+37
9.3993043 4.7672905 1.8881079 -1.571226e+37
7.8740028 4.946711 1.9578604 -1.4719893e+37
8.8402273 5.1735612 1.3113587 -1.7628213e+37
7.1865962 5.5321768 1.8275519 -1.7387463e+37
7.8487316 5.7117394 2.1192527 -1.4133144e+37
7.8880154 5.7996627 1.9033213 -1.5716827e+37
7.5228203 5.7392937 2.3380673 -1.4887005e+37
8.403205 4.6362706 2.3506539 -1.3967987e+37
6.628763 5.2473947 2.8851089 -1.513462e+37
7.585313 5.3993439 1.908735 -1.3553582e+37
8.4558329 5.710139 2.7680159 -1.5466274e+37
8.1066409 4.8356544 2.1366674 -1.5721352e+37
7.6003662 6.1181005 3.6957257 -1.4474894e+37
9.106033 4.5738436 1.6298658 -1.4969797e+37
6.337763 6.3631901 10.109525 -1.530436e+37
9.059535 5.1174472 1.3323933 -1.4066319e+37
8.1749742 5.1769731 1.0896469 -1.4463834e+37
7.6840142 3.8454938 2.0631467 -1.2216841e+37
9.220046 4.467545 1.8879696 -1.5220953e+37
9.7323144 4.3568558 2.8610449 -1.4306123e+37
8.6510469 4.5639114 1.5030739 -1.2470318e+37
9.5000626 4.5996929 3.0943463 -1.5220629e+37
9.5742363 5.2375397 2.4898575 -1.4799397e+37
7.1769461 5.4270068 2.0107374 -1.3386762e+37
9.6209956 3.7152711 2.4795018 -1.4972714e+37
8.9110899 4.3716403 2.6337676 -1.3721018e+37
8.3217389 3.7931608 1.0591781 -1.3721022e+37
8.5458348 3.797584 1.0552248 -1.2802954e+37
8.6442871 3.7808281 1.0534733 -1.6640098e+37
8.728336 3.8078835 1.0511635 -1.4389549e+37
8.8395523 3.8056241 1.0483712 -1.3884261e+37
8.9709862 3.7739835 1.0452669 -1.2967157e+37
8.9875567 3.8078883 1.0403827 -1.3552256e+37
9.1305842 3.7912786 1.0356116 -1.330107e+37
9.1441088 3.7783872 1.0355277 -1.4640075e+37
9.3849736 3.7940659 1.0216428 -1.4220133e+37
9.3979602 3.7914767 1.0211156 -1.5140503e+37
9.512906 3.841859 1.0089865 -1.4303212e+37
9.7373969 3.8681006 0.99706985 -1.6711783e+37
9.8604989 3.831689 0.99819598 -1.3722646e+37
10.270374 3.8673522 0.98803203 -1.271987e+37
8.4914631 3.8092946 1.0560167 -1.4222086e+37
8.636692 3.8591692 1.0517234 -1.3057069e+37
8.6404552 3.8113096 1.0530685 -1.3055435e+37
8.7458461 3.8829258 1.0445523 -1.722914e+37
9.0303275 3.8574768 1.0322814 -1.4804593e+37
9.150411 3.9183256 1.0182822 -1.3054138e+37
9.6128625 3.8933087 0.99816449 -1.3804104e+37
9.7927934 3.8807048 0.99448189 -1.5386796e+37
10.210019 3.9697287 0.97911131 -1.6555731e+37
10.251435 3.8936973 0.9859927 -1.3303371e+37
8.4244742 3.9551816 1.0513548 -1.2634832e+37
8.8010574 3.9401772 1.034221 -1.472349e+37
8.8545293 3.9329337 1.0317702 -1.455277e+37
9.3135295 4.0135704 0.99935954 -1.4302232e+37
9.4636155 4.0184998 0.99069875 -1.6306824e+37
9.6089881 4.0192908 0.98376219 -1.4714703e+37
9.9273568 3.9735736 0.98287977 -1.4134769e+37
10.077465 4.015249 0.97650489 -1.3551944e+37
8.3190554 3.9887157 1.0531029 -1.5140487e+37
8.535835 3.9961435 1.0418535 -1.5223866e+37
8.7828935 4.0476194 1.0225908 -1.4637137e+37
9.8187715 4.0662111 0.975256 -1.5305997e+37
9.9810271 4.0515073 0.9747181 -1.0675313e+37
10.092017 4.1205908 0.96585406 -1.380507e+37
10.151649 4.1320813 0.96402708 -1.5054806e+37
10.238459 4.1321329 0.96157356 -1.5306965e+37
9.7528716 4.1456466 0.96827622 -1.5049264e+37
10.258343 4.1708346 0.95848787 -1.3968947e+37
9.8987087 4.2141818 0.95944199 -1.4139005e+37
10.076973 4.263765 0.95179619 -1.4635853e+37
10.15475 4.2849464 0.94819044 -1.6057281e+37
10.225433 4.2931875 0.94648432 -1.3804119e+37
9.8531053 4.3352786 0.94836563 -1.4721207e+37
9.8864638 4.357912 0.94539939 -1.3634028e+37
10.05305 4.3130266 0.94747624 -1.4807242e+37
10.222523 4.2960912 0.94666854 -1.4307759e+37
9.4397468 4.3517427 1.0135961 -1.6634881e+37
9.7936346 4.3892121 0.94350642 -1.3057046e+37
9.9453321 4.3962556 0.94136665 -1.063383e+37
10.068235 4.3987492 0.94394606 -1.4720859e+37
10.251282 4.4265353 0.94871479 -1.6720896e+37
9.904877 4.5032156 0.94347717 -1.4388907e+37
10.036834 4.5062701 0.94598986 -1.3550633e+37
10.226142 4.4592282 0.94885131 -1.2552099e+37
9.9100343 4.5724874 0.9448333 -1.430483e+37
10.095991 4.5408097 0.94865398 -1.5888497e+37
10.210702 4.537493 0.95071585 -1.3721679e+37
9.8979623 4.6385441 0.94715101 -1.3222574e+37
10.089588 4.5951033 0.9499136 -1.3638269e+37
10.164181 4.6182368 0.95212017 -1.4801684e+37
10.18619 4.6096957 0.95251633 -1.3803439e+37
9.6418186 4.7272874 0.9932333 -1.5218693e+37
9.8852661 4.7017199 0.94865097 -1.5470831e+37
10.092577 4.6771161 0.9522656 -1.4134133e+37
10.202204 4.6984748 0.95559426 -1.5218033e+37
10.176936 4.7527196 0.95632301 -1.2720516e+37
10.252312 4.751884 0.95801708 -1.4056274e+37
9.8843961 4.8782187 0.95386225 -1.2972348e+37
10.0395 4.8863276 0.95724848 -1.3053177e+37
10.239818 4.8651294 0.96076828 -1.3970254e+37
9.8001675 4.9242038 0.96118215 -1.2633857e+37
9.9340547 4.9136524 0.95624103 -1.0633824e+37
10.054821 4.9667474 0.95972867 -1.6552455e+37
10.180217 4.9525877 0.96198216 -1.572333e+37
10.211939 4.9784984 0.96356378 -1.5883629e+37
9.3499676 5.001375 1.0475352 -1.4888972e+37
9.8165838 5.0531159 0.98059155 -1.5136251e+37
10.202222 4.9873387 0.96336745 -1.7558482e+37
9.6163945 5.0857625 0.99347519 -1.5219656e+37
9.6998637 5.0895672 0.99061888 -1.2801633e+37
9.8111343 5.0725832 0.98247624 -1.4548869e+37
9.9363534 5.0929814 0.97959509 -1.1123312e+37
10.099384 5.1100489 0.97466853 -1.6385332e+37
10.218523 5.1200452 0.97040276 -1.3803768e+37
9.7458988 5.19592 1.0032779 -1.264037e+37
9.8998397 5.1890903 0.99598779 -1.4217846e+37
10.112092 5.140609 0.9788665 -1.3471829e+37
10.178048 5.2190845 0.98719568 -1.4966838e+37
10.233382 5.2148256 0.98319253 -1.2887662e+37
8.3096753 5.3543304 1.7437248 -1.5472459e+37
7.7763527 3.6417623 2.878865 -1.4557313e+37
9.4053159 3.8547567 2.4027005 -1.280523e+37
8.0069047 3.0939575 6.8232185 -1.3639571e+37
8.3069364 4.547349 1.9855985 -1.2719553e+37
8.1654685 5.0900236 1.1951964 -1.7306342e+37
7.5408594 5.6895254 2.0861035 -1.472023e+37
7.2700313 5.9770533 2.3626694 -1.3965046e+37
10.156331 3.8834165 0.98860055 -1.5304673e+37
9.8999644 3.6147327 2.3398387 -1.4385951e+37
8.5911048 4.1686218 1.017915 -1.5134956e+37
8.5682903 4.2691901 1.0028716 -1.5139518e+37
8.4787496 4.4194269 0.97964806 -1.2802652e+37
8.4655764 4.5522477 0.95862432 -1.5133651e+37
8.5805705 4.7441173 0.99051397 -1.4218169e+37
8.6566154 5.0822715 0.99282291 -1.3884569e+37
10.850124 5.1094621 6.1040056 -1.4044874e+37
4.5378025 7.2189761 5.954585 -1.3804752e+37
8.9649723 4.925761 1.0583203 -1.4306478e+37
8.1766342 3.8890142 2.294416 -1.4975304e+37
8.9279441 4.1970991 1.5263558 -1.3640576e+37
10.374951 4.9523077 3.4096896 -1.2717265e+37
6.6599104 5.9560775 3.4557275 -1.3967633e+37
8.6929597 4.0436736 1.175142 -1.605174e+37
9.349422 4.4689896 2.0613241 -1.2975945e+37
8.9403093 4.6692036 1.9750862 -1.3052184e+37
9.7142162 4.9469222 1.0190879 -1.5218664e+37
8.8764833 5.1545885 1.3926948 -1.5054477e+37
7.4973416 4.793811 2.0604527 -1.4303865e+37
8.6060987 5.2127598 1.2831435 -1.4478159e+37
8.8797635 4.0669254 1.6156509 -1.6046193e+37
8.6683877 4.6046526 1.1788887 -1.347083e+37
9.4367129 4.7238516 1.6368248 -1.4891554e+37
8.0365542 5.1372994 1.8065458 -1.5718109e+37
9.8443789 4.0479273 1.9159447 -1.3384807e+37
8.6192448 4.2878977 1.7352164 -1.5804769e+37
9.0925949 4.8126957 2.0377538 -1.2636813e+37
9.7306547 5.3221154 1.8413919 -1.3719722e+37
8.3943941 4.6566954 1.7184601 -1.555521e+37
7.607075 5.8341874 2.9427733 -1.254817e+37
8.9093132 3.8524881 2.2190047 -1.5138827e+37
8.1661492 4.0423987 1.974707 -1.4304811e+37
10.156076 4.1950776 1.605346 -1.554839e+37
10.317325 4.087933 2.3350881 -1.4641064e+37
