# .PCD v.7 - Point Cloud Data file format
VERSION .7
FIELDS x y z
SIZE 4 4 4
TYPE F F F
COUNT 1 1 1
WIDTH 1060
HEIGHT 1
VIEWPOINT 0 0 0 1 0 0 0
POINTS 1060
DATA ascii
1.88907003e+00 1.56478196e-01 2.42234325e+00
1.86594462e+00 1.56844795e-01 2.40875506e+00
1.93911886e+00 1.51024446e-01 2.43938804e+00
1.98576438e+00 1.50237828e-01 2.46072721e+00
2.13195109e+00 1.51598245e-01 2.53397822e+00
2.13224244e+00 1.49441823e-01 2.52930737e+00
2.13312292e+00 1.48873970e-01 2.52984405e+00
2.13078904e+00 1.50867134e-01 2.54141521e+00
2.12986493e+00 1.52471468e-01 2.54033566e+00
2.13065767e+00 1.51869684e-01 2.52991915e+00
2.13117099e+00 1.50144666e-01 2.52827597e+00
2.10016227e+00 6.20563149e-01 2.51837134e+00
2.09692335e+00 6.27839088e-01 2.51385927e+00
2.09356332e+00 6.29869878e-01 2.51332831e+00
2.10337257e+00 6.21106207e-01 2.51704264e+00
2.10031867e+00 6.25790298e-01 2.51439524e+00
2.09821320e+00 6.18529737e-01 2.52159142e+00
2.10069060e+00 6.16770625e-01 2.52270436e+00
2.10939550e+00 6.18173599e-01 2.52421069e+00
2.11224008e+00 6.20641172e-01 2.52577138e+00
2.11293268e+00 6.21094108e-01 2.52326179e+00
2.10821795e+00 6.18430555e-01 2.53188300e+00
2.11061811e+00 6.20127857e-01 2.53038311e+00
2.10860515e+00 6.19570315e-01 2.51984119e+00
2.10723710e+00 6.18401349e-01 2.52076602e+00
2.10678148e+00 6.16911709e-01 2.52338767e+00
1.98295975e+00 6.89659178e-01 2.45849943e+00
2.02253222e+00 6.84649587e-01 2.47576523e+00
2.00998974e+00 6.89164042e-01 2.46960330e+00
1.92107880e+00 6.85624480e-01 2.42958093e+00
1.93222427e+00 6.85843229e-01 2.43645167e+00
2.02079725e+00 6.82458818e-01 2.47632718e+00
2.03484726e+00 6.80176258e-01 2.48183036e+00
1.82230270e+00 6.73641503e-01 2.38090992e+00
1.76166224e+00 6.59154177e-01 2.35285378e+00
1.73803139e+00 6.51346922e-01 2.34130859e+00
1.75120318e+00 6.53694510e-01 2.34719944e+00
1.83616817e+00 6.74636245e-01 2.38812876e+00
1.88529396e+00 6.83759749e-01 2.41098356e+00
1.83502114e+00 6.78855181e-01 2.38758564e+00
1.78566170e+00 6.67071462e-01 2.36457372e+00
1.62684071e+00 5.81677854e-01 2.28831959e+00
1.61480236e+00 5.57044566e-01 2.28327656e+00
1.61255205e+00 5.45834243e-01 2.28186059e+00
1.61566007e+00 5.50642133e-01 2.28298354e+00
1.63202679e+00 5.85668027e-01 2.29143691e+00
1.64915204e+00 6.03305817e-01 2.29920077e+00
1.62797797e+00 5.88405550e-01 2.28951883e+00
1.61710334e+00 5.68442106e-01 2.28471637e+00
1.70457196e+00 6.43272936e-01 2.32718706e+00
1.75909472e+00 6.63064122e-01 2.35552645e+00
1.73369706e+00 6.56288147e-01 2.34444070e+00
1.77280128e+00 6.64836228e-01 2.35947871e+00
1.78417766e+00 6.69746101e-01 2.36646342e+00
1.65993249e+00 6.19430244e-01 2.30600524e+00
1.66674364e+00 6.22259378e-01 2.30823421e+00
1.69581246e+00 6.37239993e-01 2.32165647e+00
1.60460186e+00 5.25495470e-01 2.27966499e+00
1.60245895e+00 4.76595163e-01 2.27742839e+00
1.60434568e+00 4.92363840e-01 2.27797270e+00
1.60699689e+00 5.21800280e-01 2.27940369e+00
1.60954523e+00 5.59581578e-01 2.28467512e+00
1.60541701e+00 5.48754096e-01 2.28366590e+00
1.61386931e+00 5.63879490e-01 2.28418207e+00
1.61363006e+00 5.70249200e-01 2.28566360e+00
1.59980488e+00 4.76873368e-01 2.27751875e+00
1.60055530e+00 4.60526317e-01 2.27687621e+00
1.60294926e+00 4.24901038e-01 2.27696872e+00
1.60364664e+00 3.79581839e-01 2.27799129e+00
1.60592270e+00 3.63813162e-01 2.27871990e+00
1.60677350e+00 3.72372866e-01 2.27877331e+00
1.60495424e+00 4.28238600e-01 2.27861071e+00
1.60519636e+00 4.59926009e-01 2.27837563e+00
1.60489774e+00 4.75994825e-01 2.27788448e+00
1.60014546e+00 4.28088486e-01 2.27650738e+00
1.60134864e+00 3.95650685e-01 2.27725244e+00
1.63973856e+00 2.64208734e-01 2.29443002e+00
1.65222383e+00 2.42605880e-01 2.30100584e+00
1.65907800e+00 2.35386863e-01 2.30390334e+00
1.65725529e+00 2.40490377e-01 2.30269003e+00
1.63838947e+00 2.70725191e-01 2.29445124e+00
1.62848663e+00 2.90285081e-01 2.28941011e+00
1.63460636e+00 2.67678022e-01 2.29265904e+00
1.64527428e+00 2.49947265e-01 2.29806304e+00
1.60529864e+00 3.41246367e-01 2.28015471e+00
1.59808040e+00 3.79303634e-01 2.27924347e+00
1.59855533e+00 3.62700373e-01 2.28041530e+00
1.60026801e+00 3.87541205e-01 2.27773833e+00
1.59762430e+00 3.95650685e-01 2.27808070e+00
1.61610138e+00 3.03287536e-01 2.28523970e+00
1.61570036e+00 3.09367806e-01 2.28405166e+00
1.60936105e+00 3.34132999e-01 2.28069878e+00
1.72370648e+00 1.78416654e-01 2.33417368e+00
1.75311112e+00 1.64045602e-01 2.34866858e+00
1.76679671e+00 1.60118669e-01 2.35475302e+00
1.76086330e+00 1.64049849e-01 2.35161233e+00
1.71872520e+00 1.83668062e-01 2.33248997e+00
1.70138061e+00 1.95412427e-01 2.32394505e+00
1.71625853e+00 1.79296613e-01 2.33132124e+00
1.73925066e+00 1.68052331e-01 2.34249759e+00
1.66529441e+00 2.22121373e-01 2.30857921e+00
1.64721322e+00 2.39781827e-01 2.30252123e+00
1.65263271e+00 2.31319025e-01 2.30603528e+00
1.64675057e+00 2.45063007e-01 2.29976034e+00
1.64187503e+00 2.48140171e-01 2.29904532e+00
1.68632364e+00 2.00262427e-01 2.31850886e+00
1.68420637e+00 2.04876333e-01 2.31650758e+00
1.67113709e+00 2.19686657e-01 2.30996633e+00
1.79352915e+00 1.50076762e-01 2.36887980e+00
1.86689162e+00 1.45445764e-01 2.40200734e+00
1.84249604e+00 1.47760525e-01 2.39023399e+00
1.79871821e+00 1.51949495e-01 2.36990952e+00
1.74931729e+00 1.59994289e-01 2.35076737e+00
1.76216662e+00 1.54519707e-01 2.35777307e+00
1.74470174e+00 1.64293215e-01 2.34605598e+00
1.73661435e+00 1.65400773e-01 2.34384131e+00
1.86616755e+00 1.43027857e-01 2.40304923e+00
1.89157534e+00 1.43085524e-01 2.41392875e+00
1.94090188e+00 1.43832564e-01 2.43597913e+00
2.01154685e+00 1.41319022e-01 2.46973252e+00
2.03464079e+00 1.42347425e-01 2.48015857e+00
1.94071317e+00 1.46301150e-01 2.43639684e+00
1.89226401e+00 1.48037776e-01 2.41354823e+00
1.86766529e+00 1.47876427e-01 2.40166712e+00
1.94072711e+00 1.41269997e-01 2.43676782e+00
1.98819435e+00 1.40312076e-01 2.45917273e+00
2.13528466e+00 1.43835232e-01 2.53644562e+00
2.13450122e+00 1.40589878e-01 2.53450370e+00
2.13484073e+00 1.40284970e-01 2.53588557e+00
2.13540435e+00 1.41333848e-01 2.53745222e+00
2.13268304e+00 1.46168232e-01 2.54307723e+00
2.13313270e+00 1.47106737e-01 2.53947568e+00
2.13458443e+00 1.42763123e-01 2.53188205e+00
2.13413692e+00 1.40830874e-01 2.53250027e+00
2.10991693e+00 6.27694547e-01 2.51528263e+00
2.10554481e+00 6.35455430e-01 2.51372504e+00
2.10256433e+00 6.37428641e-01 2.51198959e+00
2.11205292e+00 6.28531694e-01 2.51703143e+00
2.10856009e+00 6.33461118e-01 2.51548123e+00
2.10871553e+00 6.24956846e-01 2.51526332e+00
2.11076665e+00 6.23059094e-01 2.51706624e+00
2.11440086e+00 6.23480558e-01 2.52626753e+00
2.11135054e+00 6.21584833e-01 2.53260279e+00
2.11282563e+00 6.23578012e-01 2.53226876e+00
2.11505008e+00 6.26271665e-01 2.52289343e+00
2.11450911e+00 6.24994516e-01 2.52180338e+00
2.11408591e+00 6.22905195e-01 2.52286506e+00
1.98582709e+00 6.98734641e-01 2.46039844e+00
2.02520394e+00 6.93396628e-01 2.48106265e+00
2.01169467e+00 6.97876394e-01 2.47573233e+00
1.92219329e+00 6.94554567e-01 2.43010926e+00
1.93470204e+00 6.94714606e-01 2.43500566e+00
2.02516198e+00 6.91421092e-01 2.47841525e+00
2.03853440e+00 6.88951790e-01 2.48627830e+00
1.83166766e+00 6.84414685e-01 2.39300990e+00
1.83315122e+00 6.82918251e-01 2.39059567e+00
1.88323104e+00 6.92199469e-01 2.41521907e+00
1.90786088e+00 6.96700871e-01 2.42900300e+00
1.82977736e+00 6.85947776e-01 2.39616871e+00
1.78037965e+00 6.72830582e-01 2.37133336e+00
1.75695765e+00 6.64618015e-01 2.35760140e+00
1.62057638e+00 5.92214584e-01 2.29301667e+00
1.62292373e+00 5.91231048e-01 2.29101348e+00
1.64016294e+00 6.09329283e-01 2.30012774e+00
1.64941549e+00 6.18244946e-01 2.30665207e+00
1.61735058e+00 5.93253970e-01 2.29553723e+00
1.60794067e+00 5.72140396e-01 2.28963757e+00
1.60665512e+00 5.60438693e-01 2.28639340e+00
1.59218204e+00 4.28206414e-01 2.27956390e+00
1.59500086e+00 4.28216606e-01 2.27778435e+00
1.59487402e+00 4.61038768e-01 2.27867103e+00
1.59396207e+00 4.77598041e-01 2.28037977e+00
1.58912897e+00 4.28172648e-01 2.28216672e+00
1.59175229e+00 3.95138204e-01 2.28196836e+00
1.59515142e+00 3.78791183e-01 2.28094339e+00
1.62680578e+00 2.64154047e-01 2.29596758e+00
1.62944639e+00 2.65140951e-01 2.29410362e+00
1.61885870e+00 2.85415292e-01 2.29003429e+00
1.61262846e+00 2.95870662e-01 2.28922343e+00
1.62395418e+00 2.63073057e-01 2.29866552e+00
1.63652527e+00 2.45720327e-01 2.30317998e+00
1.64462078e+00 2.38396063e-01 2.30438018e+00
1.71030498e+00 1.73821852e-01 2.33550477e+00
1.71220171e+00 1.75416976e-01 2.33328819e+00
1.69393635e+00 1.87639028e-01 2.32560325e+00
1.68516481e+00 1.93520054e-01 2.32358837e+00
1.70760298e+00 1.72377825e-01 2.33827877e+00
1.73232865e+00 1.62020400e-01 2.34850097e+00
1.74735212e+00 1.58131257e-01 2.35294414e+00
1.93781888e+00 1.34779915e-01 2.44320655e+00
2.00845194e+00 1.32983059e-01 2.48001337e+00
2.03253460e+00 1.33597732e-01 2.48979378e+00
1.93917942e+00 1.36667788e-01 2.44040322e+00
1.88944197e+00 1.38612270e-01 2.41753674e+00
1.86337054e+00 1.38894454e-01 2.40749621e+00
1.93629503e+00 1.33231387e-01 2.44676876e+00
1.98424006e+00 1.32380396e-01 2.47012496e+00
2.11383986e+00 6.33856118e-01 2.52611256e+00
2.10687852e+00 6.41903162e-01 2.52628207e+00
2.10455894e+00 6.44204795e-01 2.52366424e+00
2.11389351e+00 6.32333875e-01 2.52253366e+00
2.11552429e+00 6.30107522e-01 2.52454257e+00
2.11577725e+00 6.30127609e-01 2.52746320e+00
2.11332345e+00 6.34781599e-01 2.53028655e+00
2.10921168e+00 6.39589727e-01 2.52892375e+00
2.12252831e+00 1.33200943e-01 2.54844022e+00
2.10235882e+00 1.32364541e-01 2.53431225e+00
2.09294105e+00 1.31865174e-01 2.53167701e+00
2.12488914e+00 1.33677974e-01 2.54425812e+00
2.11176610e+00 1.32865503e-01 2.53692293e+00
2.12070346e+00 1.33361906e-01 2.55305386e+00
2.12635279e+00 1.34282023e-01 2.55481243e+00
2.12842441e+00 1.34805426e-01 2.55235052e+00
2.05580020e+00 6.85957909e-01 2.51673698e+00
2.07907248e+00 6.69143558e-01 2.52332640e+00
2.08432555e+00 6.63393378e-01 2.52760172e+00
2.05400515e+00 6.85857594e-01 2.52126336e+00
2.03110600e+00 6.94680452e-01 2.50953460e+00
2.01899815e+00 6.98694468e-01 2.50030589e+00
2.05800295e+00 6.85707867e-01 2.51259947e+00
2.07382059e+00 6.74880028e-01 2.51910567e+00
2.11324620e+00 1.36778489e-01 2.56405163e+00
2.09335065e+00 1.34364843e-01 2.55115771e+00
2.08386040e+00 1.34524375e-01 2.54818439e+00
2.11608100e+00 1.35347366e-01 2.56097078e+00
2.10289669e+00 1.34201005e-01 2.55414057e+00
2.11138225e+00 1.38722360e-01 2.56677675e+00
2.11730933e+00 1.39218271e-01 2.56834364e+00
2.11966848e+00 1.38515741e-01 2.56665611e+00
2.04626083e+00 6.82913005e-01 2.53178644e+00
2.06993032e+00 6.67474627e-01 2.53965735e+00
2.07475424e+00 6.61236048e-01 2.54356790e+00
2.04915977e+00 6.84295774e-01 2.52888083e+00
2.06502867e+00 6.73750401e-01 2.53575611e+00
2.04423594e+00 6.81289613e-01 2.53427052e+00
2.02171707e+00 6.90277576e-01 2.52291059e+00
2.00988650e+00 6.95271492e-01 2.51499939e+00
2.10589290e+00 1.46010384e-01 2.56937551e+00
2.08540654e+00 1.42856628e-01 2.55933714e+00
2.07639432e+00 1.43382236e-01 2.55539441e+00
2.10782886e+00 1.43523604e-01 2.56933689e+00
2.09450793e+00 1.42323300e-01 2.56331801e+00
2.10529613e+00 1.48588449e-01 2.56871724e+00
2.11116743e+00 1.48675233e-01 2.57066178e+00
2.11292815e+00 1.47319689e-01 2.57097220e+00
2.03782153e+00 6.74994648e-01 2.53646588e+00
2.06020665e+00 6.60559595e-01 2.54677916e+00
2.06503010e+00 6.54135585e-01 2.54957604e+00
2.03996062e+00 6.77263916e-01 2.53660870e+00
2.05527258e+00 6.67049944e-01 2.54394102e+00
2.03699541e+00 6.72863305e-01 2.53556776e+00
2.01500130e+00 6.81729436e-01 2.52504992e+00
2.00276494e+00 6.86979413e-01 2.51948357e+00
2.10477710e+00 1.55488193e-01 2.56129384e+00
2.08317971e+00 1.52864903e-01 2.55405974e+00
2.07491589e+00 1.53249294e-01 2.54908395e+00
2.10601020e+00 1.57180369e-01 2.55773902e+00
2.11152458e+00 1.57112837e-01 2.56040907e+00
2.11215281e+00 1.56059667e-01 2.56277108e+00
2.10496759e+00 1.53416723e-01 2.56445646e+00
2.09151435e+00 1.52473897e-01 2.55907965e+00
2.03542638e+00 6.66842043e-01 2.52803445e+00
2.05559850e+00 6.52450264e-01 2.54052114e+00
2.06084967e+00 6.46252453e-01 2.54210734e+00
2.03579497e+00 6.68732285e-01 2.53125691e+00
2.05026841e+00 6.58704817e-01 2.53886700e+00
2.03652453e+00 6.65515065e-01 2.52439523e+00
2.01489210e+00 6.74043715e-01 2.51469970e+00
2.00180459e+00 6.78675890e-01 2.51113176e+00
2.11055088e+00 1.59660354e-01 2.54454088e+00
2.08797479e+00 1.58527195e-01 2.53841734e+00
2.08029103e+00 1.58345923e-01 2.53295064e+00
2.11310506e+00 1.59465611e-01 2.54027343e+00
2.11817122e+00 1.59588903e-01 2.54359174e+00
2.11779547e+00 1.59616277e-01 2.54685664e+00
2.10917234e+00 1.59231603e-01 2.54918838e+00
2.09566903e+00 1.58706829e-01 2.54390860e+00
2.04047751e+00 6.63230240e-01 2.51143265e+00
2.05880332e+00 6.47896707e-01 2.52455020e+00
2.06466031e+00 6.42203927e-01 2.52553868e+00
2.03910160e+00 6.63698256e-01 2.51596141e+00
2.05294538e+00 6.53603196e-01 2.52350736e+00
2.04309869e+00 6.63548589e-01 2.50729871e+00
2.02145338e+00 6.71721995e-01 2.49792361e+00
2.00756812e+00 6.75224543e-01 2.49483752e+00
2.11983228e+00 1.56083196e-01 2.52893066e+00
2.09698176e+00 1.56527132e-01 2.52157331e+00
2.08937073e+00 1.55687124e-01 2.51644468e+00
2.11797953e+00 1.57562390e-01 2.53247690e+00
2.10453725e+00 1.57371476e-01 2.52669239e+00
2.12242556e+00 1.54105693e-01 2.52655101e+00
2.12721443e+00 1.54653102e-01 2.53006077e+00
2.12655115e+00 1.55906275e-01 2.53255153e+00
2.05001497e+00 6.66274190e-01 2.49638510e+00
2.06794429e+00 6.49565041e-01 2.50822234e+00
2.07422996e+00 6.44360304e-01 2.50957537e+00
2.04794335e+00 6.65109873e-01 2.49968195e+00
2.06173611e+00 6.54732466e-01 2.50685978e+00
2.05286646e+00 6.68115318e-01 2.49429202e+00
2.03084111e+00 6.76123917e-01 2.48454809e+00
2.01667857e+00 6.78646803e-01 2.48014474e+00
2.12718558e+00 1.46851867e-01 2.52360654e+00
2.10492635e+00 1.48036137e-01 2.51339340e+00
2.09683728e+00 1.46830067e-01 2.50923395e+00
2.12623191e+00 1.49386764e-01 2.52411032e+00
2.11292624e+00 1.49249926e-01 2.51751471e+00
2.12851238e+00 1.44239947e-01 2.52461004e+00
2.13335657e+00 1.45196423e-01 2.52774239e+00
2.13329148e+00 1.47102699e-01 2.52823544e+00
2.05845428e+00 6.74191475e-01 2.49170399e+00
2.07766724e+00 6.56478524e-01 2.50109911e+00
2.08395410e+00 6.51459217e-01 2.50356579e+00
2.05714202e+00 6.72140479e-01 2.49195290e+00
2.07149124e+00 6.61431372e-01 2.49867368e+00
2.06010747e+00 6.76541030e-01 2.49299312e+00
2.03755736e+00 6.84671640e-01 2.48240733e+00
2.02380085e+00 6.86938345e-01 2.47565937e+00
2.12830210e+00 1.37373537e-01 2.53168750e+00
2.10715365e+00 1.38027534e-01 2.51866984e+00
2.09831643e+00 1.36962533e-01 2.51554322e+00
2.12779880e+00 1.35647401e-01 2.53558779e+00
2.13299966e+00 1.36758298e-01 2.53799462e+00
2.13406730e+00 1.38362288e-01 2.53643608e+00
2.12909389e+00 1.39493406e-01 2.52899003e+00
2.11592078e+00 1.39099136e-01 2.52175212e+00
2.06085038e+00 6.82345033e-01 2.50013351e+00
2.08227706e+00 6.64588392e-01 2.50735450e+00
2.08813643e+00 6.59343243e-01 2.51103139e+00
2.06130862e+00 6.80672586e-01 2.49730325e+00
2.07649708e+00 6.69776917e-01 2.50374532e+00
2.06057978e+00 6.83890462e-01 2.50416470e+00
2.03766727e+00 6.92358255e-01 2.49275661e+00
2.02476144e+00 6.95242524e-01 2.48400998e+00
2.06171942e+00 1.56811342e-01 2.50976729e+00
2.00222850e+00 1.56069636e-01 2.48170543e+00
2.02615809e+00 1.55486628e-01 2.48978066e+00
2.06478357e+00 1.55524015e-01 2.50642872e+00
2.09458089e+00 1.57833114e-01 2.52525425e+00
2.08468008e+00 1.57985702e-01 2.52409172e+00
2.06021428e+00 1.57509133e-01 2.51434660e+00
2.06957436e+00 1.32213861e-01 2.51352596e+00
2.00678015e+00 1.31709576e-01 2.48391247e+00
2.02924395e+00 1.31331474e-01 2.49797678e+00
2.06855750e+00 1.31500974e-01 2.51833582e+00
2.10416245e+00 1.33055732e-01 2.52981067e+00
2.09636378e+00 1.33549124e-01 2.52289128e+00
2.07185483e+00 1.33481324e-01 2.50980973e+00
2.05333972e+00 1.56817555e-01 2.52726221e+00
1.99392235e+00 1.56077847e-01 2.49897647e+00
2.01756740e+00 1.56810075e-01 2.50675726e+00
2.05596781e+00 1.57512143e-01 2.52321625e+00
2.08617115e+00 1.57836094e-01 2.54291892e+00
2.07686877e+00 1.56662270e-01 2.54173589e+00
2.05267096e+00 1.55532196e-01 2.53174186e+00
2.07147264e+00 6.33443236e-01 2.53587341e+00
2.05721569e+00 6.48458064e-01 2.52899742e+00
2.06179762e+00 6.43535674e-01 2.53442359e+00
2.07065296e+00 6.34272635e-01 2.54026699e+00
2.08026791e+00 6.24032378e-01 2.54012465e+00
2.07886171e+00 6.26224041e-01 2.53593493e+00
2.07319665e+00 6.32730901e-01 2.53140664e+00
2.09731770e+00 6.47077918e-01 2.51150513e+00
2.08194542e+00 6.62712455e-01 2.50452876e+00
2.08698058e+00 6.55606747e-01 2.50572729e+00
2.09636784e+00 6.44939601e-01 2.50957608e+00
2.10677218e+00 6.37371778e-01 2.51576209e+00
2.10461569e+00 6.41205549e-01 2.51650500e+00
2.09799361e+00 6.48678482e-01 2.51450896e+00
2.07049417e+00 6.39063954e-01 2.55055308e+00
2.05592990e+00 6.54325843e-01 2.54334736e+00
2.06200433e+00 6.49988174e-01 2.54741263e+00
2.07178259e+00 6.40858591e-01 2.55264401e+00
2.07943630e+00 6.29545808e-01 2.55501199e+00
2.07659245e+00 6.30976081e-01 2.55189943e+00
2.07015824e+00 6.37120485e-01 2.54770947e+00
2.08807707e+00 6.52681828e-01 2.54370379e+00
2.07250690e+00 6.68556452e-01 2.53619361e+00
2.07995796e+00 6.63088679e-01 2.53630638e+00
2.09076548e+00 6.53060794e-01 2.53969407e+00
2.09758949e+00 6.42878771e-01 2.54831386e+00
2.09319758e+00 6.44931555e-01 2.54945159e+00
2.08554244e+00 6.51502848e-01 2.54729199e+00
2.06119347e+00 1.32220075e-01 2.53102279e+00
1.99847353e+00 1.31717816e-01 2.50118494e+00
2.02065277e+00 1.32655174e-01 2.51495457e+00
2.05974078e+00 1.33489475e-01 2.53512478e+00
2.09575176e+00 1.33058682e-01 2.54747677e+00
2.08855128e+00 1.32225424e-01 2.54053712e+00
2.06431055e+00 1.31504014e-01 2.52720666e+00
2.09043884e+00 6.39108956e-01 2.50826454e+00
2.07561111e+00 6.54387414e-01 2.50155020e+00
2.07945800e+00 6.47508025e-01 2.50494957e+00
2.08803630e+00 6.37157798e-01 2.50981569e+00
2.09959626e+00 6.29565299e-01 2.51237249e+00
2.09867597e+00 6.33456230e-01 2.51090860e+00
2.09287834e+00 6.40902340e-01 2.50793195e+00
2.09633946e+00 6.52700484e-01 2.52618504e+00
2.08066034e+00 6.68581903e-01 2.51887846e+00
2.08718872e+00 6.62060976e-01 2.51871538e+00
2.09749889e+00 6.51527345e-01 2.52195168e+00
2.10594106e+00 6.42886877e-01 2.53064990e+00
2.10234642e+00 6.45959258e-01 2.53247070e+00
2.09495473e+00 6.53069854e-01 2.53081322e+00
2.06994629e+00 1.49602950e-01 2.49849653e+00
2.00943518e+00 1.48929328e-01 2.47013903e+00
2.03313661e+00 1.47476301e-01 2.48017645e+00
2.07212329e+00 1.47082344e-01 2.49804497e+00
2.10333467e+00 1.50574312e-01 2.51409745e+00
2.09362626e+00 1.51764706e-01 2.51126337e+00
2.06895828e+00 1.51869968e-01 2.50071692e+00
2.07737136e+00 6.47032857e-01 2.55379725e+00
2.06226301e+00 6.62650883e-01 2.54632854e+00
2.06952596e+00 6.58087492e-01 2.54819298e+00
2.08011317e+00 6.48641169e-01 2.55240726e+00
2.08661079e+00 6.37352228e-01 2.55840492e+00
2.08253002e+00 6.38724804e-01 2.55749893e+00
2.07527137e+00 6.44895852e-01 2.55429006e+00
2.05296731e+00 1.39429376e-01 2.54229283e+00
1.99126720e+00 1.38858959e-01 2.51275110e+00
2.01367474e+00 1.40666366e-01 2.52455831e+00
2.05240202e+00 1.41932026e-01 2.54350758e+00
2.08699822e+00 1.40318319e-01 2.55863309e+00
2.07960510e+00 1.38447270e-01 2.55336523e+00
2.05556655e+00 1.37144014e-01 2.54083610e+00
2.04971361e+00 1.49617970e-01 2.54073501e+00
1.98938179e+00 1.48949191e-01 2.51183629e+00
2.01239657e+00 1.50671571e-01 2.52116275e+00
2.05083919e+00 1.51882425e-01 2.53857470e+00
2.08302975e+00 1.50581479e-01 2.55674505e+00
2.07476592e+00 1.48569435e-01 2.55386209e+00
2.05074525e+00 1.47096917e-01 2.54271483e+00
2.07973409e+00 6.33461893e-01 2.51835799e+00
2.06536818e+00 6.48483574e-01 2.51168537e+00
2.06902742e+00 6.42508507e-01 2.51683569e+00
2.07738543e+00 6.32739961e-01 2.52252769e+00
2.08861852e+00 6.24040425e-01 2.52246380e+00
2.08800912e+00 6.27251208e-01 2.51895690e+00
2.08260751e+00 6.34297132e-01 2.51493144e+00
2.07320023e+00 1.39414355e-01 2.50005317e+00
2.01132107e+00 1.38839066e-01 2.47105265e+00
2.03441525e+00 1.37470827e-01 2.48357105e+00
2.07368660e+00 1.37131572e-01 2.50297713e+00
2.10730362e+00 1.40311167e-01 2.51598454e+00
2.09846592e+00 1.41642794e-01 2.51076555e+00
2.07378006e+00 1.41917437e-01 2.49883723e+00
2.06479931e+00 6.89759552e-01 1.93576622e+00
1.84199321e+00 5.99147499e-01 1.83019471e+00
1.80933022e+00 4.34678555e-01 1.81533444e+00
1.84137523e+00 2.67844230e-01 1.82990122e+00
1.92277741e+00 1.74708068e-01 1.86847258e+00
2.15699863e+00 1.32490039e-01 1.98077273e+00
2.28195333e+00 6.85225368e-01 2.03814721e+00
2.06011963e+00 6.83701873e-01 1.94770265e+00
1.84193337e+00 5.95001936e-01 1.84429920e+00
1.81027114e+00 4.34455991e-01 1.82953155e+00
1.84135318e+00 2.71762550e-01 1.84402442e+00
1.92104864e+00 1.80608228e-01 1.88179374e+00
2.15128040e+00 1.39757484e-01 1.99227679e+00
2.27224374e+00 6.79305315e-01 2.04880452e+00
2.06124663e+00 6.75135016e-01 1.94823611e+00
1.84958255e+00 5.89139283e-01 1.84792304e+00
1.81910813e+00 4.34233427e-01 1.83320010e+00
1.84905624e+00 2.77303904e-01 1.84767377e+00
1.92634046e+00 1.88952312e-01 1.88430130e+00
2.15126824e+00 1.49681285e-01 1.99151921e+00
2.26639080e+00 6.70625508e-01 2.04678178e+00
2.06751943e+00 6.69077396e-01 1.93705463e+00
1.86045945e+00 5.84993720e-01 1.83894265e+00
1.83066297e+00 4.34141248e-01 1.82418954e+00
1.85997117e+00 2.81222254e-01 1.83871150e+00
1.93555391e+00 1.94852397e-01 1.87452507e+00
2.15696836e+00 1.56448245e-01 1.97894371e+00
2.26782370e+00 6.64270699e-01 2.03326368e+00
2.07526398e+00 6.69077396e-01 1.92070806e+00
1.86819303e+00 5.84993720e-01 1.82261896e+00
1.83816791e+00 4.34233427e-01 1.80777931e+00
1.86770475e+00 2.81222254e-01 1.82238781e+00
1.94329154e+00 1.94852397e-01 1.85819316e+00
2.16504216e+00 1.56094864e-01 1.96191716e+00
2.27570152e+00 6.63962424e-01 2.01616955e+00
2.07994342e+00 6.75135016e-01 1.90877151e+00
1.86825299e+00 5.89139283e-01 1.80851376e+00
1.83722615e+00 4.34455991e-01 1.79358149e+00
1.86772668e+00 2.77303904e-01 1.80826461e+00
1.94502032e+00 1.88952312e-01 1.84487200e+00
2.17075992e+00 1.48828134e-01 1.95041299e+00
2.28541088e+00 6.69881225e-01 2.00551152e+00
2.07881713e+00 6.83701873e-01 1.90823793e+00
1.86060452e+00 5.95001936e-01 1.80489004e+00
1.82839024e+00 4.34678555e-01 1.78991377e+00
1.86002374e+00 2.71762550e-01 1.80461514e+00
1.93972850e+00 1.80608228e-01 1.84236443e+00
2.17077279e+00 1.38904303e-01 1.95116973e+00
2.29126477e+00 6.78560913e-01 2.00753307e+00
1.84176636e+00 5.88367939e-01 1.81009901e+00
1.81688619e+00 4.24726218e-01 1.79861975e+00
1.85507178e+00 2.57134795e-01 1.81640244e+00
1.94209659e+00 1.68114245e-01 1.85761809e+00
2.16507268e+00 1.32136613e-01 1.96374524e+00
2.28983283e+00 6.84917033e-01 2.02105093e+00
2.04443169e+00 6.83777153e-01 1.90611005e+00
2.33720350e+00 6.19602740e-01 2.05452347e+00
2.35886145e+00 1.49067163e-01 2.06522346e+00
2.34574866e+00 1.58794433e-01 2.04907322e+00
2.35682797e+00 1.34409234e-01 2.05257845e+00
2.33762956e+00 1.58452198e-01 2.06654882e+00
2.31788230e+00 6.17047787e-01 2.05598259e+00
2.34427547e+00 6.30130708e-01 2.03255677e+00
2.31701255e+00 6.22318268e-01 2.07085443e+00
2.33505964e+00 6.35297656e-01 2.06480789e+00
2.34870863e+00 1.34066939e-01 2.07005477e+00
2.33715987e+00 6.22571349e-01 2.02890301e+00
2.34221363e+00 6.36579156e-01 2.04721451e+00
2.35473466e+00 1.51894554e-01 2.03774238e+00
2.32412720e+00 6.29877567e-01 2.07451105e+00
2.33972287e+00 1.40967488e-01 2.08138561e+00
2.33513403e+00 1.51068270e-01 2.07993340e+00
2.32622766e+00 6.17152572e-01 2.03860617e+00
2.35932422e+00 1.41793817e-01 2.03919387e+00
1.83411002e+00 6.89759552e-01 2.42269325e+00
1.61130404e+00 5.99147499e-01 2.31712174e+00
1.57864034e+00 4.34678555e-01 2.30226135e+00
1.61068535e+00 2.67844230e-01 2.31682825e+00
1.69208837e+00 1.74708068e-01 2.35539961e+00
1.92630887e+00 1.32490039e-01 2.46769977e+00
2.05126429e+00 6.85225368e-01 2.52507424e+00
1.82943046e+00 6.83701873e-01 2.43462968e+00
1.61124408e+00 5.95001936e-01 2.33122635e+00
1.57958198e+00 4.34455991e-01 2.31645870e+00
1.61066341e+00 2.71762550e-01 2.33095145e+00
1.69035876e+00 1.80608228e-01 2.36872077e+00
1.92059124e+00 1.39757484e-01 2.47920370e+00
2.04155397e+00 6.79305315e-01 2.53573155e+00
1.83055687e+00 6.75135016e-01 2.43516302e+00
1.61889267e+00 5.89139283e-01 2.33485007e+00
1.58841813e+00 4.34233427e-01 2.32012701e+00
1.61836636e+00 2.77303904e-01 2.33460093e+00
1.69565129e+00 1.88952312e-01 2.37122822e+00
1.92057908e+00 1.49681285e-01 2.47844625e+00
2.03570175e+00 6.70625508e-01 2.53370881e+00
1.83682954e+00 6.69077396e-01 2.42398167e+00
1.62976956e+00 5.84993720e-01 2.32586980e+00
1.59997308e+00 4.34141248e-01 2.31111646e+00
1.62928200e+00 2.81222254e-01 2.32563853e+00
1.70486414e+00 1.94852397e-01 2.36145210e+00
1.92627919e+00 1.56448245e-01 2.46587062e+00
2.03713393e+00 6.64270699e-01 2.52019072e+00
1.84457409e+00 6.69077396e-01 2.40763497e+00
1.63750327e+00 5.84993720e-01 2.30954599e+00
1.60747802e+00 4.34233427e-01 2.29470634e+00
1.63701570e+00 2.81222254e-01 2.30931473e+00
1.71260166e+00 1.94852397e-01 2.34512019e+00
1.93435311e+00 1.56094864e-01 2.44884419e+00
2.04501247e+00 6.63962424e-01 2.50309658e+00
1.84925425e+00 6.75135016e-01 2.39569855e+00
1.63756394e+00 5.89139283e-01 2.29544091e+00
1.60653710e+00 4.34455991e-01 2.28050852e+00
1.63703763e+00 2.77303904e-01 2.29519153e+00
1.71433115e+00 1.88952312e-01 2.33179903e+00
1.94007087e+00 1.48828134e-01 2.43734002e+00
2.05472159e+00 6.69881225e-01 2.49243855e+00
1.84812725e+00 6.83701873e-01 2.39516497e+00
1.62991464e+00 5.95001936e-01 2.29181695e+00
1.59770024e+00 4.34678555e-01 2.27684069e+00
1.62933469e+00 2.71762550e-01 2.29154205e+00
1.70903945e+00 1.80608228e-01 2.32929134e+00
1.94008374e+00 1.38904303e-01 2.43809676e+00
2.06057501e+00 6.78560913e-01 2.49446011e+00
1.61107719e+00 5.88367939e-01 2.29702592e+00
1.58619630e+00 4.24726218e-01 2.28554678e+00
1.62438202e+00 2.57134795e-01 2.30332947e+00
1.71140754e+00 1.68114245e-01 2.34454513e+00
1.93438292e+00 1.32136613e-01 2.45067239e+00
2.05914378e+00 6.84917033e-01 2.50797796e+00
1.81374240e+00 6.83777153e-01 2.39303708e+00
2.10651374e+00 6.19602740e-01 2.54145050e+00
2.12817144e+00 1.49067163e-01 2.55215049e+00
2.11505890e+00 1.58794433e-01 2.53600025e+00
2.12613893e+00 1.34409234e-01 2.53950548e+00
2.10694051e+00 1.58452198e-01 2.55347586e+00
2.08719301e+00 6.17047787e-01 2.54290962e+00
2.11358643e+00 6.30130708e-01 2.51948380e+00
2.08632278e+00 6.22318268e-01 2.55778146e+00
2.10437059e+00 6.35297656e-01 2.55173492e+00
2.11801958e+00 1.34066939e-01 2.55698180e+00
2.10647011e+00 6.22571349e-01 2.51582980e+00
2.11152458e+00 6.36579156e-01 2.53414154e+00
2.12404537e+00 1.51894554e-01 2.52466941e+00
2.09343815e+00 6.29877567e-01 2.56143808e+00
2.10903287e+00 1.40967488e-01 2.56831264e+00
2.10444403e+00 1.51068270e-01 2.56686044e+00
2.09553838e+00 6.17152572e-01 2.52553320e+00
2.12863517e+00 1.41793817e-01 2.52612090e+00
1.72299802e+00 4.07013595e-01 2.06325102e+00
1.75455403e+00 3.91701996e-01 2.19415307e+00
1.79852605e+00 3.86736214e-01 2.09903407e+00
1.61385298e+00 4.37283814e-01 2.12749410e+00
1.67969596e+00 4.11832005e-01 2.15868807e+00
1.87878501e+00 3.77903491e-01 2.13705707e+00
1.91328704e+00 3.91701996e-01 2.26935506e+00
1.95904398e+00 3.86736214e-01 2.17508101e+00
1.84428298e+00 3.91701996e-01 2.00476003e+00
2.03624797e+00 4.12562102e-01 2.21165800e+00
2.05993700e+00 4.58918601e-01 2.33883309e+00
2.10734296e+00 4.54708815e-01 2.24534011e+00
2.00301504e+00 3.91701996e-01 2.07996202e+00
2.16973901e+00 5.11261582e-01 2.27490091e+00
2.17217708e+00 5.83118677e-01 2.39200902e+00
2.22084594e+00 5.80305815e-01 2.29911399e+00
2.14966512e+00 4.58918601e-01 2.14943910e+00
2.25893402e+00 6.58975899e-01 2.31715894e+00
2.23292208e+00 7.45393991e-01 2.42078710e+00
2.28227305e+00 7.44406223e-01 2.32821703e+00
2.26190591e+00 5.83118677e-01 2.20261502e+00
2.29025602e+00 8.33216727e-01 2.33199811e+00
2.23292208e+00 9.21039402e-01 2.42078710e+00
2.28227305e+00 9.22027171e-01 2.32821703e+00
2.32264996e+00 7.45393991e-01 2.23139405e+00
2.25993299e+00 9.83185291e-01 2.31763196e+00
2.32264996e+00 9.21039402e-01 2.23139405e+00
2.26534295e+00 9.87970471e-01 2.20424294e+00
2.30043006e+00 9.81683612e-01 2.22086596e+00
1.64708304e+00 4.21816587e-01 2.23589206e+00
1.70471001e+00 4.12998706e-01 2.30925703e+00
1.72055399e+00 4.01991904e-01 2.27069998e+00
1.56783700e+00 4.57737893e-01 2.24441099e+00
1.63272297e+00 4.32496697e-01 2.27515101e+00
1.79806995e+00 3.93460989e-01 2.30742502e+00
1.83392096e+00 3.82967502e-01 2.23175406e+00
1.85578597e+00 4.12998706e-01 2.38083100e+00
1.87558699e+00 4.01991904e-01 2.34415007e+00
1.95015299e+00 4.26935405e-01 2.37947702e+00
1.98963201e+00 4.17240709e-01 2.30552506e+00
1.99536204e+00 4.76973087e-01 2.44695807e+00
2.01881909e+00 4.67642009e-01 2.41200805e+00
2.07908297e+00 5.22262514e-01 2.44055891e+00
2.12163806e+00 5.14842391e-01 2.36806512e+00
2.10218906e+00 5.95182300e-01 2.49756789e+00
2.12844396e+00 5.88947475e-01 2.46394491e+00
2.16523099e+00 6.64929509e-01 2.48137307e+00
2.20984197e+00 6.60913825e-01 2.40985298e+00
2.16000295e+00 7.49630094e-01 2.52495909e+00
2.18777204e+00 7.47440815e-01 2.49205303e+00
2.19548202e+00 8.33216727e-01 2.49570489e+00
2.24081492e+00 8.33216727e-01 2.42452693e+00
2.16000295e+00 9.16803300e-01 2.52495909e+00
2.18777204e+00 9.18992579e-01 2.49205303e+00
2.16642499e+00 9.78724480e-01 2.48193908e+00
2.17561412e+00 9.87970471e-01 2.39363694e+00
2.21070099e+00 9.81683612e-01 2.41025996e+00
1.67605305e+00 5.09371221e-01 2.24961805e+00
1.77204204e+00 4.88052785e-01 2.20243812e+00
1.73683405e+00 4.92327601e-01 2.27841401e+00
1.65028703e+00 5.29657900e-01 2.14475489e+00
1.71221697e+00 5.04922092e-01 2.17409492e+00
1.59414506e+00 5.28019726e-01 2.25687504e+00
1.61462796e+00 5.33886909e-01 2.22051597e+00
1.79767704e+00 4.85758305e-01 2.30723906e+00
1.71786404e+00 4.86175805e-01 2.31548905e+00
1.89572406e+00 4.89404112e-01 2.26103497e+00
1.85928798e+00 4.92665410e-01 2.33642793e+00
1.91860497e+00 5.12379825e-01 2.36453009e+00
1.84263206e+00 4.86175805e-01 2.37459898e+00
2.01059508e+00 5.40630877e-01 2.31545711e+00
1.97256994e+00 5.44232428e-01 2.39009690e+00
2.01974201e+00 5.87014019e-01 2.41244602e+00
1.95790195e+00 5.39009571e-01 2.42920995e+00
2.09613609e+00 6.35285676e-01 2.35598302e+00
2.05867910e+00 6.39515698e-01 2.43089294e+00
2.08787608e+00 6.99686825e-01 2.44472504e+00
2.04612589e+00 6.36633813e-01 2.47100806e+00
2.14462709e+00 7.64828086e-01 2.37895703e+00
2.10582995e+00 7.65476823e-01 2.45323110e+00
2.11207008e+00 8.33662927e-01 2.45618701e+00
2.09387207e+00 7.64186025e-01 2.49362803e+00
2.14581609e+00 9.01866972e-01 2.37951994e+00
2.10612702e+00 9.01022017e-01 2.45337200e+00
2.10688400e+00 9.55831409e-01 2.45373106e+00
2.09387207e+00 9.02247429e-01 2.49362803e+00
2.11321998e+00 9.85834002e-01 2.50279498e+00
2.09250498e+00 9.57659423e-01 2.49298000e+00
1.75669503e+00 5.00118017e-01 2.07921505e+00
1.86177003e+00 4.88052785e-01 2.01304412e+00
1.81613696e+00 4.83308703e-01 2.10737705e+00
1.74001598e+00 5.29657900e-01 1.95536101e+00
1.80194604e+00 5.04922092e-01 1.98470199e+00
1.87642598e+00 4.77433801e-01 2.13594007e+00
1.83234799e+00 4.81922597e-01 2.23100901e+00
1.98545206e+00 4.89404112e-01 2.07164097e+00
1.94131994e+00 4.85335708e-01 2.16668391e+00
2.00405693e+00 5.05552888e-01 2.19640708e+00
1.95689702e+00 5.09354472e-01 2.29001689e+00
2.10032392e+00 5.40630877e-01 2.12606311e+00
2.05787897e+00 5.36624074e-01 2.22190595e+00
2.10397196e+00 5.78565300e-01 2.24374294e+00
2.05696106e+00 5.82764328e-01 2.33742309e+00
2.18586397e+00 6.35285676e-01 2.16658902e+00
2.14352202e+00 6.31392717e-01 2.26248097e+00
2.17407393e+00 6.93684518e-01 2.27695489e+00
2.12604904e+00 6.96528912e-01 2.37015510e+00
2.23435593e+00 7.64828086e-01 2.18956304e+00
2.19316792e+00 7.64018893e-01 2.28600192e+00
2.20029712e+00 8.35893810e-01 2.28937888e+00
2.15138006e+00 8.35001409e-01 2.38215590e+00
2.23554492e+00 9.01866972e-01 2.19012594e+00
2.19495201e+00 9.02807176e-01 2.28684711e+00
2.19663310e+00 9.56581295e-01 2.28764296e+00
2.14740491e+00 9.55998778e-01 2.38027191e+00
1.83748198e+00 5.09371221e-01 1.90888202e+00
1.91493797e+00 4.86175805e-01 1.89951599e+00
1.89826298e+00 4.92327601e-01 1.93767798e+00
1.79121900e+00 5.28019726e-01 1.84090197e+00
1.85281599e+00 5.03502309e-01 1.87008500e+00
1.95910597e+00 4.85758305e-01 1.96650398e+00
1.92207599e+00 4.81922597e-01 2.04161596e+00
2.03970504e+00 4.86175805e-01 1.95862603e+00
2.02071595e+00 4.92665410e-01 1.99569201e+00
2.08003402e+00 5.12379825e-01 2.02379489e+00
2.04662609e+00 5.09354472e-01 2.10062289e+00
2.15497494e+00 5.39009571e-01 2.01323700e+00
2.13399911e+00 5.44232428e-01 2.04936194e+00
2.18117094e+00 5.87014019e-01 2.07171011e+00
2.14668894e+00 5.82764328e-01 2.14802909e+00
2.24319911e+00 6.36633813e-01 2.05503511e+00
2.22010803e+00 6.39515698e-01 2.09015703e+00
2.24930501e+00 6.99686825e-01 2.10399008e+00
2.21577692e+00 6.96528912e-01 2.18076110e+00
2.29094601e+00 7.64186025e-01 2.07765508e+00
2.26725888e+00 7.65476823e-01 2.11249590e+00
2.27349901e+00 8.33662927e-01 2.11545205e+00
2.24110889e+00 8.35001409e-01 2.19276190e+00
2.29094601e+00 9.02247429e-01 2.07765508e+00
2.26755595e+00 9.01022017e-01 2.11263704e+00
2.26831293e+00 9.55831409e-01 2.11299491e+00
2.23713303e+00 9.55998778e-01 2.19087911e+00
1.80851197e+00 4.21816587e-01 1.89515698e+00
1.70358098e+00 4.37283814e-01 1.93809998e+00
1.76942396e+00 4.11832005e-01 1.96929395e+00
1.76491106e+00 4.57737893e-01 1.82843804e+00
1.74313104e+00 4.47166592e-01 1.86418200e+00
1.95949900e+00 3.93460989e-01 1.96668994e+00
1.90178394e+00 4.12998706e-01 1.89328396e+00
1.88198304e+00 4.01991904e-01 1.92996502e+00
1.92364895e+00 3.82967502e-01 2.04236102e+00
2.11158204e+00 4.26935405e-01 2.03874111e+00
2.05286002e+00 4.12998706e-01 1.96485806e+00
2.03701591e+00 4.01991904e-01 2.00341392e+00
2.07936096e+00 4.17240709e-01 2.11613202e+00
2.24051094e+00 5.22262514e-01 2.09982395e+00
2.19243598e+00 4.76973087e-01 2.03098512e+00
2.18024802e+00 4.67642009e-01 2.07127309e+00
2.21136689e+00 5.14842391e-01 2.17867208e+00
2.32665896e+00 6.64929509e-01 2.14063811e+00
2.29926205e+00 5.95182300e-01 2.08159590e+00
2.28987193e+00 5.88947475e-01 2.12320900e+00
2.29957008e+00 6.60913825e-01 2.22045898e+00
2.35691094e+00 8.33216727e-01 2.15496993e+00
2.35707688e+00 7.49630094e-01 2.10898590e+00
2.34920096e+00 7.47440815e-01 2.15131688e+00
2.33054304e+00 8.33216727e-01 2.23513293e+00
2.32785392e+00 9.78724480e-01 2.14120412e+00
2.35707688e+00 9.16803300e-01 2.10898590e+00
2.34920096e+00 9.18992579e-01 2.15131688e+00
2.31029391e+00 9.85834002e-01 2.08682203e+00
2.33786798e+00 9.75854218e-01 2.09988594e+00
1.53748906e+00 4.71481502e-01 2.18247509e+00
1.56939197e+00 4.61810589e-01 2.10577989e+00
1.58170199e+00 4.47166592e-01 2.20491695e+00
1.51477599e+00 4.96655792e-01 2.20834088e+00
1.52390397e+00 4.81523812e-01 2.22086406e+00
1.61222899e+00 4.57068086e-01 2.01077294e+00
1.65861702e+00 4.61810589e-01 1.91744697e+00
1.55867696e+00 4.79165286e-01 2.09875488e+00
1.69775999e+00 4.71481502e-01 1.84418201e+00
1.64639497e+00 4.79165286e-01 1.91360497e+00
1.72801602e+00 5.51715195e-01 1.85824299e+00
1.69127703e+00 5.47631681e-01 1.93273795e+00
1.72176099e+00 5.44978499e-01 1.81819904e+00
1.74318695e+00 5.46315789e-01 1.82069695e+00
1.64517403e+00 5.43219328e-01 2.02638102e+00
1.60191095e+00 5.47631681e-01 2.12136793e+00
1.67102695e+00 5.44215024e-01 1.92454696e+00
1.56753302e+00 5.51715195e-01 2.19698191e+00
1.58274603e+00 5.44215024e-01 2.11088610e+00
1.63078105e+00 4.46886301e-01 2.29130602e+00
1.57218301e+00 4.92878795e-01 2.26923609e+00
1.63542402e+00 4.67999488e-01 2.29919696e+00
1.64447105e+00 4.89112586e-01 2.29779196e+00
1.65574300e+00 5.03502309e-01 2.28605795e+00
1.70247900e+00 4.49587196e-01 2.33096504e+00
1.77364194e+00 4.64187205e-01 2.35898805e+00
1.78024805e+00 4.79310215e-01 2.34504390e+00
1.84039998e+00 4.49587196e-01 2.39630795e+00
1.77143896e+00 4.41997886e-01 2.36363697e+00
1.77364194e+00 4.19808507e-01 2.35898805e+00
1.78024805e+00 4.04685497e-01 2.34504390e+00
1.90126503e+00 4.92277890e-01 2.41945195e+00
1.90264106e+00 5.06249785e-01 2.40302992e+00
1.96782303e+00 5.07991314e-01 2.45667696e+00
1.90673602e+00 4.71777588e-01 2.42773604e+00
1.91661203e+00 4.51277405e-01 2.42672300e+00
1.92844903e+00 4.37305510e-01 2.41525602e+00
2.00945807e+00 5.72273374e-01 2.47071004e+00
2.00640106e+00 5.82966983e-01 2.45218706e+00
2.06534910e+00 6.15908086e-01 2.50288105e+00
2.02143598e+00 5.56583226e-01 2.48207593e+00
2.03781700e+00 5.40893018e-01 2.48414612e+00
2.05408812e+00 5.30199409e-01 2.47478008e+00
2.08175111e+00 6.91995203e-01 2.50496006e+00
2.07573104e+00 6.97782576e-01 2.48503399e+00
2.11812901e+00 7.56908119e-01 2.52788591e+00
2.09807491e+00 6.83503687e-01 2.51838589e+00
2.11880398e+00 6.75012171e-01 2.52251410e+00
2.13803697e+00 6.69224918e-01 2.51455212e+00
2.10713696e+00 8.33216727e-01 2.51698709e+00
2.10007596e+00 8.33216727e-01 2.49656796e+00
2.11812901e+00 9.09525394e-01 2.52788591e+00
2.12498689e+00 8.33216727e-01 2.53113604e+00
2.14724207e+00 8.33216727e-01 2.53598809e+00
2.16751599e+00 8.33216727e-01 2.52851796e+00
2.09862709e+00 9.46760774e-01 2.50852895e+00
2.13021994e+00 9.57077324e-01 2.52349591e+00
2.11004305e+00 9.66756821e-01 2.51836395e+00
2.14079499e+00 9.75854218e-01 2.51585889e+00
1.85475802e+00 4.89112586e-01 1.85393000e+00
1.78687406e+00 4.92878795e-01 1.81607699e+00
1.85011494e+00 4.67999488e-01 1.84603906e+00
1.84106803e+00 4.46886301e-01 1.84744406e+00
1.82979596e+00 4.32496697e-01 1.85917902e+00
1.91716897e+00 4.49587196e-01 1.87780702e+00
1.98392797e+00 4.19808507e-01 1.91512704e+00
1.97732198e+00 4.04685497e-01 1.92907095e+00
2.05509090e+00 4.49587196e-01 1.94315004e+00
1.98613000e+00 4.41997886e-01 1.91047800e+00
1.98392797e+00 4.64187205e-01 1.91512704e+00
1.97732198e+00 4.79310215e-01 1.92907095e+00
2.12689900e+00 4.51277405e-01 1.98286104e+00
2.12552309e+00 4.37305510e-01 1.99928403e+00
2.18251395e+00 5.07991314e-01 2.00351810e+00
2.12142706e+00 4.71777588e-01 1.97457695e+00
2.11155105e+00 4.92277890e-01 1.97558999e+00
2.09971499e+00 5.06249785e-01 1.98705697e+00
2.24810410e+00 5.40893018e-01 2.04028392e+00
2.25116110e+00 5.30199409e-01 2.05880690e+00
2.28003907e+00 6.15908086e-01 2.04972291e+00
2.23612690e+00 5.56583226e-01 2.02891803e+00
2.21974492e+00 5.72273374e-01 2.02684903e+00
2.20347500e+00 5.82966983e-01 2.03621507e+00
2.32909012e+00 6.75012171e-01 2.07865310e+00
2.33510995e+00 6.69224918e-01 2.09857893e+00
2.33281994e+00 7.56908119e-01 2.07472801e+00
2.31276608e+00 6.83503687e-01 2.06522703e+00
2.29203796e+00 6.91995203e-01 2.06109810e+00
2.27280498e+00 6.97782576e-01 2.06906104e+00
2.35752892e+00 8.33216727e-01 2.09212589e+00
2.36458898e+00 8.33216727e-01 2.11254501e+00
2.33281994e+00 9.09525394e-01 2.07472801e+00
2.33967805e+00 8.33216727e-01 2.07797694e+00
2.31742406e+00 8.33216727e-01 2.07312489e+00
2.29714990e+00 8.33216727e-01 2.08059502e+00
2.33708096e+00 9.57077324e-01 2.08686495e+00
2.30548811e+00 9.46760774e-01 2.07189703e+00
2.32032990e+00 9.66756821e-01 2.07450199e+00
2.28957796e+00 9.57659423e-01 2.07700801e+00
1.74439895e+00 5.33157289e-01 1.80540800e+00
1.71908998e+00 5.20991623e-01 1.80062997e+00
1.73925996e+00 5.13963401e-01 1.79768598e+00
1.73000395e+00 4.94747698e-01 1.79863405e+00
1.70339096e+00 4.96655792e-01 1.81022298e+00
1.71886301e+00 4.81523812e-01 1.80935502e+00
1.52266395e+00 4.94747698e-01 2.23627591e+00
1.51729596e+00 5.20991623e-01 2.22656608e+00
1.52779305e+00 5.13963401e-01 2.24403906e+00
1.53702402e+00 5.33157289e-01 2.24312401e+00
1.53258300e+00 5.44978499e-01 2.21750498e+00
1.54808700e+00 5.46315789e-01 2.23250294e+00
1.53437197e+00 5.02157509e-01 2.17230105e+00
1.56496501e+00 4.94137913e-01 2.09996796e+00
1.52751803e+00 4.88200396e-01 2.17326593e+00
1.52770305e+00 5.20642698e-01 2.20426202e+00
1.52214503e+00 5.08055091e-01 2.20381594e+00
1.60644102e+00 4.89597589e-01 2.00802994e+00
1.65131605e+00 4.94137913e-01 1.91770303e+00
1.57151198e+00 5.11518478e-01 2.10296607e+00
1.68791401e+00 5.02157509e-01 1.84821403e+00
1.65778196e+00 5.11518478e-01 1.92086995e+00
1.70455599e+00 5.08055091e-01 1.81879199e+00
1.70985198e+00 5.11648715e-01 1.81108904e+00
1.71319902e+00 5.20904422e-01 1.81298101e+00
1.70842195e+00 5.20642698e-01 1.82281005e+00
1.71690202e+00 5.30063212e-01 1.81402504e+00
1.71436501e+00 5.33317626e-01 1.82252896e+00
1.70049095e+00 5.34347415e-01 1.85280895e+00
1.66471195e+00 5.28984904e-01 1.92314005e+00
1.61958301e+00 5.24705529e-01 2.01425695e+00
1.57765806e+00 5.28984904e-01 2.10689092e+00
1.54589403e+00 5.34347415e-01 2.17912412e+00
1.53124905e+00 5.33317626e-01 2.20903897e+00
1.52627599e+00 5.30063212e-01 2.21638894e+00
1.52312195e+00 5.20904422e-01 2.21418405e+00
1.51953900e+00 5.11648715e-01 2.21279311e+00
1.65693200e+00 4.32514608e-01 2.03195095e+00
2.22483897e+00 9.89038706e-01 2.30100608e+00
2.29465199e+00 9.86368120e-01 2.12547398e+00
1.56656206e+00 4.71980810e-01 2.26088095e+00
1.70076895e+00 4.27828401e-01 2.32446408e+00
1.84651399e+00 4.27828401e-01 2.39351296e+00
1.98116398e+00 4.89545107e-01 2.45730495e+00
2.08422089e+00 6.03582680e-01 2.50612998e+00
2.13999510e+00 7.52579927e-01 2.53255391e+00
2.13999510e+00 9.13853526e-01 2.53255391e+00
2.13322306e+00 9.86368120e-01 2.46620893e+00
1.69434297e+00 5.25019288e-01 2.04967499e+00
1.77605700e+00 5.33886909e-01 1.87978101e+00
1.79249406e+00 5.13776720e-01 1.82443202e+00
1.91887903e+00 4.71346110e-01 1.88430798e+00
2.04897809e+00 4.71346110e-01 1.94594502e+00
2.16917300e+00 5.26437581e-01 2.00288892e+00
2.26116705e+00 6.28233492e-01 2.04647303e+00
2.31095409e+00 7.61236191e-01 2.07006001e+00
2.31095409e+00 9.05197203e-01 2.07006001e+00
1.60079098e+00 4.74502891e-01 2.00535297e+00
1.72278404e+00 5.35073400e-01 1.80645597e+00
1.70738602e+00 5.48695982e-01 1.85213602e+00
1.62528002e+00 5.39924920e-01 2.01695609e+00
1.51364005e+00 5.06822586e-01 2.22057605e+00
1.58220696e+00 5.13776720e-01 2.26829290e+00
1.70859206e+00 4.71346110e-01 2.32817006e+00
1.83869100e+00 4.71346110e-01 2.38980699e+00
1.95888698e+00 5.26437581e-01 2.44675112e+00
2.05088091e+00 6.28233492e-01 2.49033499e+00
2.10066700e+00 7.61236191e-01 2.51392198e+00
2.10066700e+00 9.05197203e-01 2.51392198e+00
1.77684903e+00 4.71980810e-01 1.81701899e+00
1.91105604e+00 4.27828401e-01 1.88060200e+00
2.05679989e+00 4.27828401e-01 1.94965100e+00
2.19145107e+00 4.89545107e-01 2.01344395e+00
2.29450703e+00 6.03582680e-01 2.06226802e+00
2.35028100e+00 7.52579927e-01 2.08869195e+00
2.35028100e+00 9.13853526e-01 2.08869195e+00
1.68431902e+00 4.88200396e-01 1.84229898e+00
1.54974103e+00 5.48695982e-01 2.18488598e+00
1.71213901e+00 5.06822586e-01 1.80159402e+00
1.52414405e+00 5.35073400e-01 2.22573495e+00
1.54063404e+00 5.18187225e-01 2.17459202e+00
1.61300397e+00 5.07130802e-01 2.01114011e+00
1.69365203e+00 5.18187225e-01 1.85160995e+00
-6.28469884e-01 6.44882083e-01 2.36998725e+00
-6.19277596e-01 6.20496929e-01 2.32531857e+00
-6.14076614e-01 6.12395346e-01 2.31381750e+00
-6.14817560e-01 6.20698810e-01 2.32639527e+00
-6.46412849e-01 6.67309880e-01 2.44259477e+00
-6.56130910e-01 6.74877286e-01 2.46851826e+00
-6.50763750e-01 6.67608738e-01 2.44116998e+00
-5.96930683e-01 5.25260508e-01 2.27211905e+00
-5.96247733e-01 5.61960876e-01 2.28241920e+00
-5.98718345e-01 5.73349893e-01 2.28520203e+00
-6.00525081e-01 5.62162817e-01 2.28075957e+00
-5.92012346e-01 4.78174210e-01 2.26889586e+00
-5.90958536e-01 4.94786561e-01 2.27063704e+00
-5.92720389e-01 5.25417149e-01 2.27370954e+00
-5.98691285e-01 3.30916405e-01 2.27490473e+00
-6.06989801e-01 2.94216067e-01 2.28608513e+00
-6.06950641e-01 2.82827109e-01 2.29106545e+00
-6.02532864e-01 2.94014156e-01 2.28717065e+00
-5.92413843e-01 3.78002733e-01 2.27017832e+00
-5.93332767e-01 3.94677281e-01 2.26800632e+00
-5.96681952e-01 3.78002733e-01 2.26848865e+00
-6.19731128e-01 2.12196693e-01 2.34208345e+00
-6.31232142e-01 1.90767080e-01 2.36348820e+00
-6.32159293e-01 1.83581173e-01 2.37155461e+00
-6.26802921e-01 1.90470815e-01 2.36466384e+00
-6.08957589e-01 2.36060575e-01 2.32300162e+00
-6.08266234e-01 2.44035393e-01 2.31568837e+00
-6.13237858e-01 2.35858664e-01 2.32135081e+00
-6.62434638e-01 1.41840279e-01 2.48133135e+00
-6.43263578e-01 1.54966325e-01 2.43256521e+00
-6.40192091e-01 1.59701198e-01 2.41762519e+00
-6.47587359e-01 1.54670045e-01 2.43099952e+00
-6.81724370e-01 1.35508746e-01 2.55592179e+00
-6.71915948e-01 1.37284905e-01 2.52968192e+00
-6.57919705e-01 1.42050117e-01 2.48213553e+00
-7.77873337e-01 1.36160001e-01 2.84355521e+00
-7.81032026e-01 1.35165676e-01 2.84114671e+00
-7.82271445e-01 1.36322796e-01 2.84162998e+00
-7.80250967e-01 1.37356371e-01 2.84350705e+00
-7.71532476e-01 6.30114853e-01 2.82455969e+00
-7.70322442e-01 6.25326276e-01 2.82291532e+00
-7.72832274e-01 6.25805795e-01 2.82259870e+00
-7.74611175e-01 6.28822923e-01 2.82342267e+00
-7.75273204e-01 6.32624924e-01 2.82277393e+00
-7.73822129e-01 6.33786678e-01 2.82299638e+00
-7.71006942e-01 6.32893384e-01 2.82440972e+00
-7.25423336e-01 7.06237614e-01 2.67665720e+00
-7.05618680e-01 6.99787796e-01 2.60097456e+00
-6.95613682e-01 6.96540654e-01 2.57416129e+00
-7.01217115e-01 7.00086653e-01 2.60229111e+00
-7.44779289e-01 6.98389709e-01 2.72547555e+00
-7.41726041e-01 7.02090502e-01 2.71064806e+00
-7.29948342e-01 7.06261575e-01 2.67589068e+00
-6.41863704e-01 6.37826204e-01 2.35680199e+00
-6.27776027e-01 6.19136274e-01 2.32406235e+00
-6.30118489e-01 6.27633989e-01 2.33589983e+00
-6.41088605e-01 6.43248141e-01 2.36656952e+00
-6.34849370e-01 6.16980493e-01 2.32498693e+00
-6.30206466e-01 6.09329283e-01 2.31302476e+00
-6.29847705e-01 6.14150107e-01 2.31835151e+00
-6.14025593e-01 5.18189490e-01 2.26942515e+00
-6.09395504e-01 4.77598041e-01 2.26537466e+00
-6.08370662e-01 4.94325638e-01 2.26646090e+00
-6.10800266e-01 5.24704278e-01 2.26986003e+00
-6.16247296e-01 3.24575096e-01 2.27500796e+00
-6.15621567e-01 2.94979364e-01 2.28525424e+00
-6.12793624e-01 3.06027204e-01 2.28058314e+00
-6.11739159e-01 3.31336021e-01 2.27285767e+00
-6.22722089e-01 2.96915084e-01 2.28626418e+00
-6.23160779e-01 2.85415292e-01 2.29052711e+00
-6.20257676e-01 2.90236324e-01 2.28773022e+00
-6.37753606e-01 2.10811034e-01 2.34367800e+00
-6.39735281e-01 1.92212209e-01 2.36224771e+00
-6.35990679e-01 1.98867604e-01 2.35464907e+00
-6.32679701e-01 2.13747054e-01 2.33971953e+00
-6.46557271e-01 1.95172310e-01 2.36236930e+00
-6.47990167e-01 1.87639028e-01 2.36980724e+00
-6.44721985e-01 1.90006614e-01 2.36584473e+00
-6.82106078e-01 1.44074023e-01 2.48606658e+00
-6.99185193e-01 1.37357503e-01 2.55102897e+00
-6.89471364e-01 1.38505772e-01 2.52465415e+00
-6.75905645e-01 1.43776715e-01 2.47723389e+00
-7.90790379e-01 1.40434206e-01 2.83793616e+00
-7.84932196e-01 1.43867120e-01 2.84047294e+00
-7.84208834e-01 1.42506570e-01 2.84133840e+00
-7.88031161e-01 1.39260843e-01 2.84058595e+00
-7.94444203e-01 1.40462026e-01 2.83427143e+00
-7.94342101e-01 1.41769707e-01 2.83509922e+00
-7.91749120e-01 1.42545655e-01 2.83750105e+00
-7.85140038e-01 6.28633022e-01 2.81770968e+00
-7.82586277e-01 6.31312728e-01 2.81902075e+00
-7.81088591e-01 6.30258501e-01 2.82029700e+00
-7.82008648e-01 6.28138840e-01 2.82005072e+00
-7.88180649e-01 6.28676951e-01 2.81432986e+00
-7.88001478e-01 6.30107522e-01 2.81445336e+00
-7.86166310e-01 6.30729854e-01 2.81637192e+00
-7.39463031e-01 7.03031123e-01 2.66694808e+00
-7.13640034e-01 6.98020101e-01 2.59794760e+00
-7.20936775e-01 7.01830983e-01 2.62557292e+00
-7.37206757e-01 7.04564631e-01 2.67288876e+00
-7.19920635e-01 6.94920063e-01 2.59630156e+00
-7.10642099e-01 6.92199469e-01 2.56965303e+00
-7.12966859e-01 6.95005476e-01 2.58349919e+00
-7.58562624e-01 6.93466604e-01 2.71819162e+00
-7.54813612e-01 6.96620643e-01 2.70367169e+00
-7.43525982e-01 7.00994730e-01 2.66972351e+00
-6.50298119e-01 6.31250739e-01 2.36055708e+00
-6.39171302e-01 6.13695562e-01 2.32702684e+00
-6.42291903e-01 6.22259378e-01 2.33804846e+00
-6.52162373e-01 6.37239993e-01 2.36850691e+00
-6.40437841e-01 6.10646844e-01 2.33107114e+00
-6.36987686e-01 6.03305817e-01 2.31899738e+00
-6.38628244e-01 6.08225942e-01 2.32317781e+00
